8.479939699172973633e-01 -1.797524988651275635e-01 1.647184789180755615e-01
8.476690053939819336e-01 -1.808961182832717896e-01 1.647210121154785156e-01
8.473440408706665039e-01 -1.820397526025772095e-01 1.647235304117202759e-01
8.475322723388671875e-01 -1.833339333534240723e-01 1.638787537813186646e-01
8.472068905830383301e-01 -1.844791471958160400e-01 1.638812720775604248e-01
8.468814492225646973e-01 -1.856243610382080078e-01 1.638838052749633789e-01
8.465560078620910645e-01 -1.867695897817611694e-01 1.638863384723663330e-01
8.462306261062622070e-01 -1.879148036241531372e-01 1.638888567686080933e-01
8.453942537307739258e-01 -1.889014989137649536e-01 1.647386848926544189e-01
8.450692892074584961e-01 -1.900451332330703735e-01 1.647412031888961792e-01
8.447443246841430664e-01 -1.911887526512145996e-01 1.647437214851379395e-01
8.444193601608276367e-01 -1.923323869705200195e-01 1.647462546825408936e-01
8.440943956375122070e-01 -1.934760063886642456e-01 1.647487729787826538e-01
8.432607054710388184e-01 -1.944531500339508057e-01 1.655985713005065918e-01
8.429362177848815918e-01 -1.955951899290084839e-01 1.656010895967483521e-01
8.421038985252380371e-01 -1.965675503015518188e-01 1.664508730173110962e-01
8.412724733352661133e-01 -1.975367218255996704e-01 1.673007011413574219e-01
8.409488797187805176e-01 -1.986755728721618652e-01 1.673032194375991821e-01
8.396124243736267090e-01 -1.994655281305313110e-01 1.690002381801605225e-01
8.387837409973144531e-01 -2.004251480102539062e-01 1.698500066995620728e-01
8.384615182876586914e-01 -2.015592157840728760e-01 1.698525100946426392e-01
8.366240262985229492e-01 -2.021556049585342407e-01 1.723967939615249634e-01
8.363031148910522461e-01 -2.032848894596099854e-01 1.723992824554443359e-01
8.354780673980712891e-01 -2.042317837476730347e-01 1.732490062713623047e-01
8.336465358734130859e-01 -2.048074603080749512e-01 1.757932603359222412e-01
8.333274126052856445e-01 -2.059303820133209229e-01 1.757957339286804199e-01
8.320027589797973633e-01 -2.066789120435714722e-01 1.774926632642745972e-01
8.316845893859863281e-01 -2.077986598014831543e-01 1.774951368570327759e-01
8.298606872558593750e-01 -2.083472609519958496e-01 1.800393164157867432e-01
8.285409808158874512e-01 -2.090782821178436279e-01 1.817362010478973389e-01
8.282250761985778809e-01 -2.101900428533554077e-01 1.817386597394943237e-01
8.269080519676208496e-01 -2.109114974737167358e-01 1.834355890750885010e-01
8.255928754806518555e-01 -2.116266041994094849e-01 1.851324439048767090e-01
8.252787590026855469e-01 -2.127320021390914917e-01 1.851348876953125000e-01
8.239662647247314453e-01 -2.134375274181365967e-01 1.868317723274230957e-01
8.236530423164367676e-01 -2.145397365093231201e-01 1.868342012166976929e-01
8.233398795127868652e-01 -2.156419456005096436e-01 1.868366301059722900e-01
8.230266571044921875e-01 -2.167441695928573608e-01 1.868390738964080811e-01
8.227134346961975098e-01 -2.178463786840438843e-01 1.868415027856826782e-01
8.224002718925476074e-01 -2.189485877752304077e-01 1.868439316749572754e-01
8.225835561752319336e-01 -2.202603071928024292e-01 1.859991401433944702e-01
8.232619166374206543e-01 -2.217862755060195923e-01 1.843072324991226196e-01
8.229473233222961426e-01 -2.228932678699493408e-01 1.843096762895584106e-01
8.241181373596191406e-01 -2.246430665254592896e-01 1.817705631256103516e-01
8.247914910316467285e-01 -2.261865586042404175e-01 1.800786852836608887e-01
8.244746923446655273e-01 -2.273015081882476807e-01 1.800811588764190674e-01
8.572657704353332520e-01 -1.452572494745254517e-01 1.632246226072311401e-01
8.569403290748596191e-01 -1.464024633169174194e-01 1.632271558046340942e-01
8.566148877143859863e-01 -1.475476920604705811e-01 1.632296741008758545e-01
8.562895059585571289e-01 -1.486929059028625488e-01 1.632322072982788086e-01
8.559640645980834961e-01 -1.498381197452545166e-01 1.632347255945205688e-01
8.556386232376098633e-01 -1.509833484888076782e-01 1.632372587919235229e-01
8.553132414817810059e-01 -1.521285623311996460e-01 1.632397919893264771e-01
8.549878001213073730e-01 -1.532737910747528076e-01 1.632423102855682373e-01
8.546623587608337402e-01 -1.544190049171447754e-01 1.632448434829711914e-01
8.543369770050048828e-01 -1.555642187595367432e-01 1.632473766803741455e-01
8.534893393516540527e-01 -1.565959155559539795e-01 1.640980839729309082e-01
8.531643748283386230e-01 -1.577395498752593994e-01 1.641006022691726685e-01
8.528394103050231934e-01 -1.588831692934036255e-01 1.641031354665756226e-01
8.525143861770629883e-01 -1.600267887115478516e-01 1.641056537628173828e-01
8.521894216537475586e-01 -1.611704230308532715e-01 1.641081869602203369e-01
8.518644571304321289e-01 -1.623140424489974976e-01 1.641107052564620972e-01
8.515394926071166992e-01 -1.634576767683029175e-01 1.641132235527038574e-01
8.512145280838012695e-01 -1.646012961864471436e-01 1.641157567501068115e-01
8.508895635604858398e-01 -1.657449305057525635e-01 1.641182750463485718e-01
8.500464558601379395e-01 -1.667606979608535767e-01 1.649689525365829468e-01
8.497219085693359375e-01 -1.679027229547500610e-01 1.649714708328247070e-01
8.493974208831787109e-01 -1.690447628498077393e-01 1.649739891290664673e-01
8.490729331970214844e-01 -1.701867878437042236e-01 1.649765074253082275e-01
8.487483859062194824e-01 -1.713288277387619019e-01 1.649790406227111816e-01
8.484238982200622559e-01 -1.724708676338195801e-01 1.649815589189529419e-01
8.480993509292602539e-01 -1.736128926277160645e-01 1.649840772151947021e-01
8.477748632431030273e-01 -1.747549325227737427e-01 1.649865955114364624e-01
8.479648232460021973e-01 -1.760375648736953735e-01 1.641409993171691895e-01
8.476398587226867676e-01 -1.771811842918395996e-01 1.641435176134109497e-01
8.473148941993713379e-01 -1.783248186111450195e-01 1.641460508108139038e-01
8.469899296760559082e-01 -1.794684380292892456e-01 1.641485691070556641e-01
8.466649651527404785e-01 -1.806120723485946655e-01 1.641510874032974243e-01
8.463400006294250488e-01 -1.817556917667388916e-01 1.641536206007003784e-01
8.460150361061096191e-01 -1.828993260860443115e-01 1.641561388969421387e-01
8.456900715827941895e-01 -1.840429455041885376e-01 1.641586720943450928e-01
8.453651070594787598e-01 -1.851865798234939575e-01 1.641611903905868530e-01
8.450401425361633301e-01 -1.863301992416381836e-01 1.641637235879898071e-01
8.447151780128479004e-01 -1.874738335609436035e-01 1.641662418842315674e-01
8.443902134895324707e-01 -1.886174529790878296e-01 1.641687601804733276e-01
8.440652489662170410e-01 -1.897610723972320557e-01 1.641712933778762817e-01
8.432316184043884277e-01 -1.907434016466140747e-01 1.650218963623046875e-01
8.423988819122314453e-01 -1.917225271463394165e-01 1.658724844455718994e-01
8.420748114585876465e-01 -1.928629726171493530e-01 1.658750027418136597e-01
8.412434458732604980e-01 -1.938373148441314697e-01 1.667256355285644531e-01
8.409198522567749023e-01 -1.949761658906936646e-01 1.667281538248062134e-01
8.400898575782775879e-01 -1.959457397460937500e-01 1.675787270069122314e-01
8.392607569694519043e-01 -1.969121247529983521e-01 1.684292852878570557e-01
8.389380574226379395e-01 -1.980477869510650635e-01 1.684317886829376221e-01
8.376052975654602051e-01 -1.988353580236434937e-01 1.701304018497467041e-01
8.372835516929626465e-01 -1.999678313732147217e-01 1.701328903436660767e-01
8.359534740447998047e-01 -2.007458209991455078e-01 1.718315333127975464e-01
8.346252441406250000e-01 -2.015174627304077148e-01 1.735301017761230469e-01
8.343052268028259277e-01 -2.026435583829879761e-01 1.735325902700424194e-01
8.324769735336303711e-01 -2.032236158847808838e-01 1.760792136192321777e-01
8.311536908149719238e-01 -2.039777338504791260e-01 1.777777373790740967e-01
8.308359980583190918e-01 -2.050958722829818726e-01 1.777802109718322754e-01
8.290140628814697266e-01 -2.056536227464675903e-01 1.803267896175384521e-01
8.286976814270019531e-01 -2.067669779062271118e-01 1.803292483091354370e-01
8.273802995681762695e-01 -2.075003832578659058e-01 1.820277273654937744e-01
8.260647058486938477e-01 -2.082274109125137329e-01 1.837262511253356934e-01
8.257501721382141113e-01 -2.093344032764434814e-01 1.837286949157714844e-01
8.249364495277404785e-01 -2.102466374635696411e-01 1.845791339874267578e-01
8.236249685287475586e-01 -2.109593302011489868e-01 1.862776279449462891e-01
8.233117461204528809e-01 -2.120615392923355103e-01 1.862800568342208862e-01
8.225007653236389160e-01 -2.129642218351364136e-01 1.871304810047149658e-01
8.221880197525024414e-01 -2.140648514032363892e-01 1.871329098939895630e-01
8.218752741813659668e-01 -2.151654660701751709e-01 1.871353387832641602e-01
8.215625286102294922e-01 -2.162660807371139526e-01 1.871377676725387573e-01
8.217457532882690430e-01 -2.175726145505905151e-01 1.862922310829162598e-01
8.214325308799743652e-01 -2.186748236417770386e-01 1.862946599721908569e-01
8.216144442558288574e-01 -2.199861407279968262e-01 1.854490637779235840e-01
8.222900032997131348e-01 -2.215113192796707153e-01 1.837555766105651855e-01
8.219754695892333984e-01 -2.226183116436004639e-01 1.837580204010009766e-01
8.231420516967773438e-01 -2.243669331073760986e-01 1.812165230512619019e-01
8.238126635551452637e-01 -2.259096205234527588e-01 1.795230656862258911e-01
8.234958052635192871e-01 -2.270245850086212158e-01 1.795255243778228760e-01
8.554099798202514648e-01 -1.460192352533340454e-01 1.635054498910903931e-01
8.550850152969360352e-01 -1.471628546714782715e-01 1.635079681873321533e-01
8.547600507736206055e-01 -1.483064740896224976e-01 1.635105013847351074e-01
8.544350862503051758e-01 -1.494501084089279175e-01 1.635130196809768677e-01
8.541101217269897461e-01 -1.505937278270721436e-01 1.635155528783798218e-01
8.537851572036743164e-01 -1.517373621463775635e-01 1.635180711746215820e-01
8.534601926803588867e-01 -1.528809815645217896e-01 1.635205894708633423e-01
8.531352281570434570e-01 -1.540246158838272095e-01 1.635231226682662964e-01
8.528102636337280273e-01 -1.551682353019714355e-01 1.635256409645080566e-01
8.524852395057678223e-01 -1.563118696212768555e-01 1.635281741619110107e-01
8.521602749824523926e-01 -1.574554890394210815e-01 1.635306924581527710e-01
8.518353104591369629e-01 -1.585991233587265015e-01 1.635332107543945312e-01
8.515103459358215332e-01 -1.597427427768707275e-01 1.635357439517974854e-01
8.511853814125061035e-01 -1.608863770961761475e-01 1.635382622480392456e-01
8.508604168891906738e-01 -1.620299965143203735e-01 1.635407954454421997e-01
8.505354523658752441e-01 -1.631736308336257935e-01 1.635433137416839600e-01
8.502104878425598145e-01 -1.643172502517700195e-01 1.635458469390869141e-01
8.498855233192443848e-01 -1.654608696699142456e-01 1.635483652353286743e-01
8.490437865257263184e-01 -1.664770394563674927e-01 1.643998324871063232e-01
8.487192988395690918e-01 -1.676190644502639771e-01 1.644023507833480835e-01
8.483947515487670898e-01 -1.687611043453216553e-01 1.644048690795898438e-01
8.480702638626098633e-01 -1.699031442403793335e-01 1.644074022769927979e-01
8.477457165718078613e-01 -1.710451692342758179e-01 1.644099205732345581e-01
8.474212288856506348e-01 -1.721872091293334961e-01 1.644124388694763184e-01
8.470966815948486328e-01 -1.733292341232299805e-01 1.644149571657180786e-01
8.467721939086914062e-01 -1.744712740182876587e-01 1.644174754619598389e-01
8.469607830047607422e-01 -1.757535189390182495e-01 1.635710895061492920e-01
8.466358184814453125e-01 -1.768971383571624756e-01 1.635736078023910522e-01
8.463108539581298828e-01 -1.780407726764678955e-01 1.635761260986328125e-01
8.459858894348144531e-01 -1.791843920946121216e-01 1.635786592960357666e-01
8.456609249114990234e-01 -1.803280115127563477e-01 1.635811775922775269e-01
8.453359603881835938e-01 -1.814716458320617676e-01 1.635837107896804810e-01
8.450109958648681641e-01 -1.826152652502059937e-01 1.635862290859222412e-01
8.446860313415527344e-01 -1.837588995695114136e-01 1.635887622833251953e-01
8.443610668182373047e-01 -1.849025189876556396e-01 1.635912805795669556e-01
8.440360426902770996e-01 -1.860461533069610596e-01 1.635937988758087158e-01
8.437110781669616699e-01 -1.871897727251052856e-01 1.635963320732116699e-01
8.433861136436462402e-01 -1.883334070444107056e-01 1.635988503694534302e-01
8.430611491203308105e-01 -1.894770264625549316e-01 1.636013835668563843e-01
8.422289490699768066e-01 -1.904597431421279907e-01 1.644527763128280640e-01
8.413976430892944336e-01 -1.914392709732055664e-01 1.653041541576385498e-01
8.410735726356506348e-01 -1.925797164440155029e-01 1.653066724538803101e-01
8.402435779571533203e-01 -1.935544461011886597e-01 1.661581099033355713e-01
8.399199843406677246e-01 -1.946932971477508545e-01 1.661606132984161377e-01
8.390914201736450195e-01 -1.956632733345031738e-01 1.670119911432266235e-01
8.382636904716491699e-01 -1.966300606727600098e-01 1.678633391857147217e-01
8.379409909248352051e-01 -1.977657228708267212e-01 1.678658574819564819e-01
8.366110324859619141e-01 -1.985540688037872314e-01 1.695660352706909180e-01
8.362892866134643555e-01 -1.996865421533584595e-01 1.695685386657714844e-01
8.349620103836059570e-01 -2.004653364419937134e-01 1.712687611579895020e-01
8.336365818977355957e-01 -2.012377530336380005e-01 1.729689091444015503e-01
8.333165645599365234e-01 -2.023638635873794556e-01 1.729713976383209229e-01
8.314924836158752441e-01 -2.029450982809066772e-01 1.755204051733016968e-01
8.301720619201660156e-01 -2.037000060081481934e-01 1.772205233573913574e-01
8.298543095588684082e-01 -2.048181444406509399e-01 1.772229969501495361e-01
8.280365467071533203e-01 -2.053770869970321655e-01 1.797719597816467285e-01
8.277201652526855469e-01 -2.064904570579528809e-01 1.797744184732437134e-01
8.264056444168090820e-01 -2.072246521711349487e-01 1.814744919538497925e-01
8.250928521156311035e-01 -2.079524695873260498e-01 1.831745952367782593e-01
8.247782588005065918e-01 -2.090594619512557983e-01 1.831770390272140503e-01
8.239659667015075684e-01 -2.099720835685729980e-01 1.840282827615737915e-01
8.226572871208190918e-01 -2.106855660676956177e-01 1.857283562421798706e-01
8.223440647125244141e-01 -2.117877751588821411e-01 1.857307851314544678e-01
8.215345144271850586e-01 -2.126908600330352783e-01 1.865819990634918213e-01
8.212217688560485840e-01 -2.137914746999740601e-01 1.865844279527664185e-01
8.209089636802673340e-01 -2.148920893669128418e-01 1.865868568420410156e-01
8.205962181091308594e-01 -2.159927189350128174e-01 1.865892857313156128e-01
8.207780718803405762e-01 -2.172988504171371460e-01 1.857429444789886475e-01
8.204648494720458984e-01 -2.184010595083236694e-01 1.857453882694244385e-01
8.206453323364257812e-01 -2.197119891643524170e-01 1.848990023136138916e-01
8.213181495666503906e-01 -2.212363630533218384e-01 1.832039207220077515e-01
8.210035562515258789e-01 -2.223433554172515869e-01 1.832063645124435425e-01
8.226582407951354980e-01 -2.243042588233947754e-01 1.798137426376342773e-01
8.538824319839477539e-01 -1.456367820501327515e-01 1.637853384017944336e-01
8.535579442977905273e-01 -1.467788070440292358e-01 1.637878566980361938e-01
8.532333970069885254e-01 -1.479208469390869141e-01 1.637903749942779541e-01
8.529089093208312988e-01 -1.490628868341445923e-01 1.637928932905197144e-01
8.525843620300292969e-01 -1.502049118280410767e-01 1.637954264879226685e-01
8.522598743438720703e-01 -1.513469517230987549e-01 1.637979447841644287e-01
8.519353270530700684e-01 -1.524889767169952393e-01 1.638004630804061890e-01
8.516108393669128418e-01 -1.536310166120529175e-01 1.638029813766479492e-01
8.512862920761108398e-01 -1.547730416059494019e-01 1.638054996728897095e-01
8.504423499107360840e-01 -1.558023542165756226e-01 1.646578013896942139e-01
8.501182794570922852e-01 -1.569427847862243652e-01 1.646603196859359741e-01
8.497942686080932617e-01 -1.580832302570343018e-01 1.646628230810165405e-01
8.494701981544494629e-01 -1.592236757278442383e-01 1.646653413772583008e-01
8.491461277008056641e-01 -1.603641062974929810e-01 1.646678596735000610e-01
8.488220572471618652e-01 -1.615045517683029175e-01 1.646703779697418213e-01
8.484979867935180664e-01 -1.626449972391128540e-01 1.646728962659835815e-01
8.481739163398742676e-01 -1.637854278087615967e-01 1.646754145622253418e-01
8.478498458862304688e-01 -1.649258732795715332e-01 1.646779328584671021e-01
8.475257754325866699e-01 -1.660663187503814697e-01 1.646804511547088623e-01
8.472017049789428711e-01 -1.672067493200302124e-01 1.646829694509506226e-01
8.468776941299438477e-01 -1.683471947908401489e-01 1.646854877471923828e-01
8.465536236763000488e-01 -1.694876402616500854e-01 1.646880060434341431e-01
8.462295532226562500e-01 -1.706280708312988281e-01 1.646905243396759033e-01
8.459054827690124512e-01 -1.717685163021087646e-01 1.646930426359176636e-01
8.455814123153686523e-01 -1.729089617729187012e-01 1.646955609321594238e-01
8.452573418617248535e-01 -1.740493923425674438e-01 1.646980792284011841e-01
8.449332714080810547e-01 -1.751898378133773804e-01 1.647005975246429443e-01
8.446092009544372559e-01 -1.763302832841873169e-01 1.647031009197235107e-01
8.442851305007934570e-01 -1.774707287549972534e-01 1.647056192159652710e-01
8.439611196517944336e-01 -1.786111593246459961e-01 1.647081375122070312e-01
8.436370491981506348e-01 -1.797516047954559326e-01 1.647106558084487915e-01
8.433129787445068359e-01 -1.808920502662658691e-01 1.647131741046905518e-01
8.434979319572448730e-01 -1.821818500757217407e-01 1.638660132884979248e-01
8.431733846664428711e-01 -1.833238899707794189e-01 1.638685315847396851e-01
8.423407673835754395e-01 -1.843133717775344849e-01 1.647207289934158325e-01
8.420166969299316406e-01 -1.854538023471832275e-01 1.647232472896575928e-01
8.416926264762878418e-01 -1.865942478179931641e-01 1.647257655858993530e-01
8.413685560226440430e-01 -1.877346932888031006e-01 1.647282838821411133e-01
8.410445451736450195e-01 -1.888751238584518433e-01 1.647308021783828735e-01
8.402145504951477051e-01 -1.898550391197204590e-01 1.655830293893814087e-01
8.398909568786621094e-01 -1.909938901662826538e-01 1.655855476856231689e-01
8.390623927116394043e-01 -1.919690370559692383e-01 1.664377152919769287e-01
8.382347822189331055e-01 -1.929409950971603394e-01 1.672898828983306885e-01
8.379120826721191406e-01 -1.940766572952270508e-01 1.672923862934112549e-01
8.370857834815979004e-01 -1.950438469648361206e-01 1.681445389986038208e-01
8.357572555541992188e-01 -1.958377510309219360e-01 1.698463708162307739e-01
8.354358673095703125e-01 -1.969686299562454224e-01 1.698488742113113403e-01
8.341100811958312988e-01 -1.977529972791671753e-01 1.715506464242935181e-01
8.337896466255187988e-01 -1.988807022571563721e-01 1.715531349182128906e-01
8.319652080535888672e-01 -1.994790583848953247e-01 1.741045564413070679e-01
8.306444287300109863e-01 -2.002459019422531128e-01 1.758062839508056641e-01
8.303261995315551758e-01 -2.013656347990036011e-01 1.758087575435638428e-01
8.290081024169921875e-01 -2.021229118108749390e-01 1.775105148553848267e-01
8.276917934417724609e-01 -2.028738260269165039e-01 1.792122125625610352e-01
8.273754119873046875e-01 -2.039871960878372192e-01 1.792146712541580200e-01
8.255632519721984863e-01 -2.045425325632095337e-01 1.817660033702850342e-01
8.252482414245605469e-01 -2.056511193513870239e-01 1.817684471607208252e-01
8.239378333091735840e-01 -2.063813358545303345e-01 1.834701001644134521e-01
8.226291537284851074e-01 -2.071051597595214844e-01 1.851717829704284668e-01
8.223159909248352051e-01 -2.082073688507080078e-01 1.851742118597030640e-01
8.220027685165405273e-01 -2.093095928430557251e-01 1.851766407489776611e-01
8.216896057128906250e-01 -2.104118019342422485e-01 1.851790696382522583e-01
8.203855156898498535e-01 -2.111197113990783691e-01 1.868806779384613037e-01
8.195782303810119629e-01 -2.120199948549270630e-01 1.877326816320419312e-01
8.192663788795471191e-01 -2.131174355745315552e-01 1.877350956201553345e-01
8.189545273780822754e-01 -2.142148613929748535e-01 1.877375245094299316e-01
8.191363215446472168e-01 -2.155158221721649170e-01 1.868903785943984985e-01
8.198103904724121094e-01 -2.170250862836837769e-01 1.851936727762222290e-01
8.194971680641174316e-01 -2.181272953748703003e-01 1.851961016654968262e-01
8.196762800216674805e-01 -2.194378226995468140e-01 1.843489259481430054e-01
8.203462362289428711e-01 -2.209614217281341553e-01 1.826522648334503174e-01
8.200317025184631348e-01 -2.220684140920639038e-01 1.826547086238861084e-01
8.216807842254638672e-01 -2.240277230739593506e-01 1.792588979005813599e-01
8.525552749633789062e-01 -1.464951634407043457e-01 1.632187366485595703e-01
8.522307276725769043e-01 -1.476371884346008301e-01 1.632212549448013306e-01
8.519062399864196777e-01 -1.487792283296585083e-01 1.632237881422042847e-01
8.515816926956176758e-01 -1.499212533235549927e-01 1.632263064384460449e-01
8.512572050094604492e-01 -1.510632932186126709e-01 1.632288247346878052e-01
8.509326577186584473e-01 -1.522053182125091553e-01 1.632313430309295654e-01
8.506081700325012207e-01 -1.533473581075668335e-01 1.632338613271713257e-01
8.502836227416992188e-01 -1.544893980026245117e-01 1.632363796234130859e-01
8.494411110877990723e-01 -1.555190831422805786e-01 1.640894711017608643e-01
8.491170406341552734e-01 -1.566595286130905151e-01 1.640919893980026245e-01
8.487929701805114746e-01 -1.577999740839004517e-01 1.640945076942443848e-01
8.484688997268676758e-01 -1.589404046535491943e-01 1.640970259904861450e-01
8.481448292732238770e-01 -1.600808501243591309e-01 1.640995442867279053e-01
8.478208184242248535e-01 -1.612212955951690674e-01 1.641020625829696655e-01
8.474967479705810547e-01 -1.623617261648178101e-01 1.641045808792114258e-01
8.471726775169372559e-01 -1.635021716356277466e-01 1.641070991754531860e-01
8.468486070632934570e-01 -1.646426171064376831e-01 1.641096025705337524e-01
8.465245366096496582e-01 -1.657830476760864258e-01 1.641121208667755127e-01
8.462004661560058594e-01 -1.669234931468963623e-01 1.641146391630172729e-01
8.458763957023620605e-01 -1.680639386177062988e-01 1.641171574592590332e-01
8.455523252487182617e-01 -1.692043840885162354e-01 1.641196757555007935e-01
8.452282547950744629e-01 -1.703448146581649780e-01 1.641221940517425537e-01
8.449042439460754395e-01 -1.714852601289749146e-01 1.641247123479843140e-01
8.445801734924316406e-01 -1.726257055997848511e-01 1.641272306442260742e-01
8.442561030387878418e-01 -1.737661361694335938e-01 1.641297489404678345e-01
8.439320325851440430e-01 -1.749065816402435303e-01 1.641322672367095947e-01
8.436079621315002441e-01 -1.760470271110534668e-01 1.641347855329513550e-01
8.422650098800659180e-01 -1.769022494554519653e-01 1.658383458852767944e-01
8.419418334960937500e-01 -1.780395060777664185e-01 1.658408492803573608e-01
8.421272039413452148e-01 -1.793225556612014771e-01 1.649928689002990723e-01
8.418036103248596191e-01 -1.804613918066024780e-01 1.649953871965408325e-01
8.414800167083740234e-01 -1.816002428531646729e-01 1.649979054927825928e-01
8.411563634872436523e-01 -1.827390938997268677e-01 1.650004237890243530e-01
8.403260707855224609e-01 -1.837257891893386841e-01 1.658534109592437744e-01
8.400028944015502930e-01 -1.848630309104919434e-01 1.658559143543243408e-01
8.396797776222229004e-01 -1.860002875328063965e-01 1.658584326505661011e-01
8.393566012382507324e-01 -1.871375441551208496e-01 1.658609360456466675e-01
8.390334248542785645e-01 -1.882748007774353027e-01 1.658634543418884277e-01
8.382058143615722656e-01 -1.892519295215606689e-01 1.667164117097854614e-01
8.378831148147583008e-01 -1.903875917196273804e-01 1.667189151048660278e-01
8.370568752288818359e-01 -1.913599520921707153e-01 1.675718724727630615e-01
8.362315297126770020e-01 -1.923291236162185669e-01 1.684248298406600952e-01
8.359097242355346680e-01 -1.934615969657897949e-01 1.684273332357406616e-01
8.345835208892822266e-01 -1.942579001188278198e-01 1.701307594776153564e-01
8.332591652870178223e-01 -1.950478255748748779e-01 1.718341261148452759e-01
8.329392075538635254e-01 -1.961739361286163330e-01 1.718366146087646484e-01
8.316175341606140137e-01 -1.969543099403381348e-01 1.735400110483169556e-01
8.312984108924865723e-01 -1.980772316455841064e-01 1.735424846410751343e-01
8.299794793128967285e-01 -1.988480538129806519e-01 1.752458065748214722e-01
8.281629085540771484e-01 -1.994348466396331787e-01 1.777995824813842773e-01
8.278460502624511719e-01 -2.005497962236404419e-01 1.778020411729812622e-01
8.260335922241210938e-01 -2.011222690343856812e-01 1.803557425737380981e-01
8.257181048393249512e-01 -2.022324502468109131e-01 1.803582012653350830e-01
8.244072794914245605e-01 -2.029745876789093018e-01 1.820615082979202271e-01
8.230983018875122070e-01 -2.037103772163391113e-01 1.837647557258605957e-01
8.227846622467041016e-01 -2.048141807317733765e-01 1.837671846151351929e-01
8.214783668518066406e-01 -2.055403888225555420e-01 1.854704618453979492e-01
8.206697702407836914e-01 -2.064506262540817261e-01 1.863232851028442383e-01
8.203575015068054199e-01 -2.075496613979339600e-01 1.863257139921188354e-01
8.195502758026123047e-01 -2.084551155567169189e-01 1.871785223484039307e-01
8.192384243011474609e-01 -2.095525562763214111e-01 1.871809363365173340e-01
8.184325098991394043e-01 -2.104532271623611450e-01 1.880337446928024292e-01
8.181211352348327637e-01 -2.115490734577178955e-01 1.880361586809158325e-01
8.178097605705261230e-01 -2.126449197530746460e-01 1.880385726690292358e-01
8.174983859062194824e-01 -2.137407511472702026e-01 1.880410015583038330e-01
8.181714415550231934e-01 -2.152428478002548218e-01 1.863426864147186279e-01
8.188426494598388672e-01 -2.167513221502304077e-01 1.846444010734558105e-01
8.185294866561889648e-01 -2.178535312414169312e-01 1.846468299627304077e-01
8.191980123519897461e-01 -2.193715721368789673e-01 1.829485148191452026e-01
8.198647499084472656e-01 -2.208959609270095825e-01 1.812502592802047729e-01
8.195497393608093262e-01 -2.220045477151870728e-01 1.812527030706405640e-01
8.207032680511474609e-01 -2.237511873245239258e-01 1.787040680646896362e-01
8.501884937286376953e-01 -1.471519470214843750e-01 1.643549501895904541e-01
8.498648405075073242e-01 -1.482907980680465698e-01 1.643574684858322144e-01
8.495412468910217285e-01 -1.494296342134475708e-01 1.643599867820739746e-01
8.492176532745361328e-01 -1.505684852600097656e-01 1.643624901771545410e-01
8.488940000534057617e-01 -1.517073363065719604e-01 1.643650084733963013e-01
8.485704064369201660e-01 -1.528461873531341553e-01 1.643675267696380615e-01
8.482468128204345703e-01 -1.539850234985351562e-01 1.643700450658798218e-01
8.479232192039489746e-01 -1.551238745450973511e-01 1.643725484609603882e-01
8.470833897590637207e-01 -1.561491936445236206e-01 1.652264147996902466e-01
8.467602729797363281e-01 -1.572864502668380737e-01 1.652289330959320068e-01
8.464370965957641602e-01 -1.584237068891525269e-01 1.652314364910125732e-01
8.461139202117919922e-01 -1.595609635114669800e-01 1.652339547872543335e-01
8.457908034324645996e-01 -1.606982052326202393e-01 1.652364581823348999e-01
8.454676270484924316e-01 -1.618354618549346924e-01 1.652389764785766602e-01
8.451444506645202637e-01 -1.629727184772491455e-01 1.652414798736572266e-01
8.448212742805480957e-01 -1.641099750995635986e-01 1.652439981698989868e-01
8.444981575012207031e-01 -1.652472317218780518e-01 1.652465015649795532e-01
8.441749811172485352e-01 -1.663844883441925049e-01 1.652490198612213135e-01
8.438518047332763672e-01 -1.675217449665069580e-01 1.652515232563018799e-01
8.435286879539489746e-01 -1.686590015888214111e-01 1.652540266513824463e-01
8.432055115699768066e-01 -1.697962582111358643e-01 1.652565449476242065e-01
8.428823351860046387e-01 -1.709335148334503174e-01 1.652590483427047729e-01
8.425592184066772461e-01 -1.720707565546035767e-01 1.652615666389465332e-01
8.422360420227050781e-01 -1.732080131769180298e-01 1.652640700340270996e-01
8.419128656387329102e-01 -1.743452697992324829e-01 1.652665883302688599e-01
8.415896892547607422e-01 -1.754825264215469360e-01 1.652690917253494263e-01
8.412665724754333496e-01 -1.766197830438613892e-01 1.652716100215911865e-01
8.409433960914611816e-01 -1.777570396661758423e-01 1.652741134166717529e-01
8.411273360252380371e-01 -1.790396869182586670e-01 1.644253432750701904e-01
8.408037424087524414e-01 -1.801785379648208618e-01 1.644278615713119507e-01
8.404801487922668457e-01 -1.813173741102218628e-01 1.644303649663925171e-01
8.401565551757812500e-01 -1.824562251567840576e-01 1.644328832626342773e-01
8.393276333808898926e-01 -1.834433078765869141e-01 1.652866750955581665e-01
8.390044569969177246e-01 -1.845805644989013672e-01 1.652891784906387329e-01
8.386812806129455566e-01 -1.857178211212158203e-01 1.652916818857192993e-01
8.383581042289733887e-01 -1.868550777435302734e-01 1.652942001819610596e-01
8.380349874496459961e-01 -1.879923343658447266e-01 1.652967035770416260e-01
8.372087478637695312e-01 -1.889698654413223267e-01 1.661504656076431274e-01
8.368860483169555664e-01 -1.901055276393890381e-01 1.661529839038848877e-01
8.360612392425537109e-01 -1.910782754421234131e-01 1.670067310333251953e-01
8.352372646331787109e-01 -1.920478492975234985e-01 1.678604781627655029e-01
8.349154591560363770e-01 -1.931803226470947266e-01 1.678629666566848755e-01
8.335920572280883789e-01 -1.939774006605148315e-01 1.695679873228073120e-01
8.322705030441284180e-01 -1.947681307792663574e-01 1.712729483842849731e-01
8.319505453109741211e-01 -1.958942413330078125e-01 1.712754219770431519e-01
8.306316137313842773e-01 -1.966753900051116943e-01 1.729804128408432007e-01
8.303125500679016113e-01 -1.977983117103576660e-01 1.729828864336013794e-01
8.289964199066162109e-01 -1.985699236392974854e-01 1.746878027915954590e-01
8.271840214729309082e-01 -1.991579085588455200e-01 1.772439628839492798e-01
8.268671631813049316e-01 -2.002728730440139771e-01 1.772464215755462646e-01
8.250588774681091309e-01 -2.008465379476547241e-01 1.798025071620941162e-01
8.247433900833129883e-01 -2.019567042589187622e-01 1.798049509525299072e-01
8.234354257583618164e-01 -2.026996463537216187e-01 1.815098524093627930e-01
8.221292495727539062e-01 -2.034362107515335083e-01 1.832146793603897095e-01
8.218155503273010254e-01 -2.045400142669677734e-01 1.832171231508255005e-01
8.205121159553527832e-01 -2.052670270204544067e-01 1.849219799041748047e-01
8.197048902511596680e-01 -2.061776518821716309e-01 1.857755929231643677e-01
8.193926215171813965e-01 -2.072766870260238647e-01 1.857780218124389648e-01
8.185867667198181152e-01 -2.081825286149978638e-01 1.866316199302673340e-01
8.182749152183532715e-01 -2.092799693346023560e-01 1.866340488195419312e-01
8.174704313278198242e-01 -2.101810425519943237e-01 1.874876469373703003e-01
8.171590566635131836e-01 -2.112768888473510742e-01 1.874900609254837036e-01
8.168476223945617676e-01 -2.123727351427078247e-01 1.874924749135971069e-01
8.165362477302551270e-01 -2.134685814380645752e-01 1.874949038028717041e-01
8.172065019607543945e-01 -2.149698734283447266e-01 1.857950091361999512e-01
8.178749680519104004e-01 -2.164775580167770386e-01 1.840951293706893921e-01
8.175617456436157227e-01 -2.175797671079635620e-01 1.840975582599639893e-01
8.187170028686523438e-01 -2.193045169115066528e-01 1.815465092658996582e-01
8.193805217742919922e-01 -2.208297252655029297e-01 1.798466145992279053e-01
8.190650343894958496e-01 -2.219399064779281616e-01 1.798490583896636963e-01
8.486702442169189453e-01 -1.467686742544174194e-01 1.646395921707153320e-01
8.483470678329467773e-01 -1.479059308767318726e-01 1.646421104669570923e-01
8.475064039230346680e-01 -1.489396095275878906e-01 1.654967814683914185e-01
8.471837043762207031e-01 -1.500752717256546021e-01 1.654992997646331787e-01
8.468610048294067383e-01 -1.512109339237213135e-01 1.655018031597137451e-01
8.470544219017028809e-01 -1.524549573659896851e-01 1.646521538496017456e-01
8.467312455177307129e-01 -1.535922139883041382e-01 1.646546572446823120e-01
8.458929061889648438e-01 -1.546179205179214478e-01 1.655093282461166382e-01
8.455701470375061035e-01 -1.557535827159881592e-01 1.655118316411972046e-01
8.452474474906921387e-01 -1.568892449140548706e-01 1.655143350362777710e-01
8.449247479438781738e-01 -1.580249071121215820e-01 1.655168384313583374e-01
8.446020483970642090e-01 -1.591605693101882935e-01 1.655193567276000977e-01
8.442793488502502441e-01 -1.602962315082550049e-01 1.655218601226806641e-01
8.439566493034362793e-01 -1.614318937063217163e-01 1.655243635177612305e-01
8.436339497566223145e-01 -1.625675559043884277e-01 1.655268669128417969e-01
8.433112502098083496e-01 -1.637032181024551392e-01 1.655293703079223633e-01
8.429885506629943848e-01 -1.648388803005218506e-01 1.655318886041641235e-01
8.426658511161804199e-01 -1.659745424985885620e-01 1.655343919992446899e-01
8.423430919647216797e-01 -1.671102046966552734e-01 1.655368953943252563e-01
8.420203924179077148e-01 -1.682458668947219849e-01 1.655393987894058228e-01
8.416976928710937500e-01 -1.693815290927886963e-01 1.655419170856475830e-01
8.413749933242797852e-01 -1.705171912908554077e-01 1.655444204807281494e-01
8.410522937774658203e-01 -1.716528534889221191e-01 1.655469238758087158e-01
8.407295942306518555e-01 -1.727885156869888306e-01 1.655494272708892822e-01
8.404068946838378906e-01 -1.739241778850555420e-01 1.655519455671310425e-01
8.400841951370239258e-01 -1.750598400831222534e-01 1.655544489622116089e-01
8.397614955902099609e-01 -1.761955022811889648e-01 1.655569523572921753e-01
8.394387364387512207e-01 -1.773311644792556763e-01 1.655594557523727417e-01
8.391160368919372559e-01 -1.784668266773223877e-01 1.655619591474533081e-01
8.387933373451232910e-01 -1.796024888753890991e-01 1.655644774436950684e-01
8.384706377983093262e-01 -1.807381510734558105e-01 1.655669808387756348e-01
8.381479382514953613e-01 -1.818738132715225220e-01 1.655694842338562012e-01
8.378252387046813965e-01 -1.830094754695892334e-01 1.655719876289367676e-01
8.375025391578674316e-01 -1.841451376676559448e-01 1.655745059251785278e-01
8.371798396110534668e-01 -1.852807998657226562e-01 1.655770093202590942e-01
8.363545536994934082e-01 -1.862603276968002319e-01 1.664315611124038696e-01
8.360323309898376465e-01 -1.873943954706192017e-01 1.664340645074844360e-01
8.352084159851074219e-01 -1.883691251277923584e-01 1.672886162996292114e-01
8.348866105079650879e-01 -1.895016133785247803e-01 1.672911196947097778e-01
8.340640068054199219e-01 -1.904715597629547119e-01 1.681457012891769409e-01
8.327420949935913086e-01 -1.912742257118225098e-01 1.698522716760635376e-01
8.324216604232788086e-01 -1.924019306898117065e-01 1.698547601699829102e-01
8.316017985343933105e-01 -1.933623254299163818e-01 1.707092821598052979e-01
8.302839398384094238e-01 -1.941506564617156982e-01 1.724158674478530884e-01
8.299648761749267578e-01 -1.952735632658004761e-01 1.724183410406112671e-01
8.286496996879577637e-01 -1.960523426532745361e-01 1.741248518228530884e-01
8.283315300941467285e-01 -1.971720755100250244e-01 1.741273254156112671e-01
8.265219330787658691e-01 -1.977660357952117920e-01 1.766858696937561035e-01
8.252117633819580078e-01 -1.985272765159606934e-01 1.783923506736755371e-01
8.248958587646484375e-01 -1.996390521526336670e-01 1.783948093652725220e-01
8.230926394462585449e-01 -2.002107053995132446e-01 1.809533089399337769e-01
8.227780461311340332e-01 -2.013176977634429932e-01 1.809557527303695679e-01
8.209788799285888672e-01 -2.018750160932540894e-01 1.835142225027084351e-01
8.196768760681152344e-01 -2.026076018810272217e-01 1.852206289768218994e-01
8.193646073341369629e-01 -2.037066221237182617e-01 1.852230578660964966e-01
8.180652856826782227e-01 -2.044296562671661377e-01 1.869294494390487671e-01
8.177539110183715820e-01 -2.055254876613616943e-01 1.869318634271621704e-01
8.174424767494201660e-01 -2.066213339567184448e-01 1.869342774152755737e-01
8.171311020851135254e-01 -2.077171802520751953e-01 1.869367063045501709e-01
8.168197274208068848e-01 -2.088130265474319458e-01 1.869391202926635742e-01
8.165083527565002441e-01 -2.099088579416275024e-01 1.869415342807769775e-01
8.161969184875488281e-01 -2.110047042369842529e-01 1.869439631700515747e-01
8.158855438232421875e-01 -2.121005505323410034e-01 1.869463771581649780e-01
8.155741691589355469e-01 -2.131963968276977539e-01 1.869487911462783813e-01
8.162416219711303711e-01 -2.146968990564346313e-01 1.852473169565200806e-01
8.169072866439819336e-01 -2.162037938833236694e-01 1.835458427667617798e-01
8.165940642356872559e-01 -2.173060029745101929e-01 1.835482865571975708e-01
8.177451491355895996e-01 -2.190295755863189697e-01 1.809948533773422241e-01
8.184058070182800293e-01 -2.205539792776107788e-01 1.792933642864227295e-01
8.180903792381286621e-01 -2.216641604900360107e-01 1.792958229780197144e-01
8.476717472076416016e-01 -1.464862078428268433e-01 1.640728563070297241e-01
8.473486304283142090e-01 -1.476234644651412964e-01 1.640753746032714844e-01
8.465093374252319336e-01 -1.486575305461883545e-01 1.649308502674102783e-01
8.461866378784179688e-01 -1.497931927442550659e-01 1.649333536624908447e-01
8.458639383316040039e-01 -1.509288549423217773e-01 1.649358570575714111e-01
8.460559844970703125e-01 -1.521724909543991089e-01 1.640854179859161377e-01
8.457328081130981445e-01 -1.533097475767135620e-01 1.640879213809967041e-01
8.448958396911621094e-01 -1.543358415365219116e-01 1.649433821439743042e-01
8.445731401443481445e-01 -1.554715037345886230e-01 1.649458855390548706e-01
8.442503809928894043e-01 -1.566071659326553345e-01 1.649483889341354370e-01
8.439276814460754395e-01 -1.577428281307220459e-01 1.649508923292160034e-01
8.436049818992614746e-01 -1.588784903287887573e-01 1.649534106254577637e-01
8.432822823524475098e-01 -1.600141525268554688e-01 1.649559140205383301e-01
8.429595828056335449e-01 -1.611498147249221802e-01 1.649584174156188965e-01
8.426368832588195801e-01 -1.622854769229888916e-01 1.649609208106994629e-01
8.423141837120056152e-01 -1.634211391210556030e-01 1.649634391069412231e-01
8.419914841651916504e-01 -1.645568162202835083e-01 1.649659425020217896e-01
8.416687846183776855e-01 -1.656924784183502197e-01 1.649684458971023560e-01
8.413460254669189453e-01 -1.668281406164169312e-01 1.649709492921829224e-01
8.410233259201049805e-01 -1.679638028144836426e-01 1.649734675884246826e-01
8.407006263732910156e-01 -1.690994650125503540e-01 1.649759709835052490e-01
8.403779268264770508e-01 -1.702351272106170654e-01 1.649784743785858154e-01
8.400552272796630859e-01 -1.713707894086837769e-01 1.649809777736663818e-01
8.397325277328491211e-01 -1.725064516067504883e-01 1.649834811687469482e-01
8.394098281860351562e-01 -1.736421138048171997e-01 1.649859994649887085e-01
8.390871286392211914e-01 -1.747777760028839111e-01 1.649885028600692749e-01
8.387644290924072266e-01 -1.759134382009506226e-01 1.649910062551498413e-01
8.384416699409484863e-01 -1.770491003990173340e-01 1.649935096502304077e-01
8.381189703941345215e-01 -1.781847625970840454e-01 1.649960279464721680e-01
8.377962708473205566e-01 -1.793204247951507568e-01 1.649985313415527344e-01
8.374735713005065918e-01 -1.804560869932174683e-01 1.650010347366333008e-01
8.371508717536926270e-01 -1.815917491912841797e-01 1.650035381317138672e-01
8.368281722068786621e-01 -1.827274113893508911e-01 1.650060564279556274e-01
8.365054726600646973e-01 -1.838630735874176025e-01 1.650085598230361938e-01
8.361827731132507324e-01 -1.849987357854843140e-01 1.650110632181167603e-01
8.353589177131652832e-01 -1.859786510467529297e-01 1.658664196729660034e-01
8.350366353988647461e-01 -1.871127188205718994e-01 1.658689230680465698e-01
8.342141509056091309e-01 -1.880878508090972900e-01 1.667242646217346191e-01
8.338923454284667969e-01 -1.892203241586685181e-01 1.667267680168151855e-01
8.330711722373962402e-01 -1.901906728744506836e-01 1.675821393728256226e-01
8.317520022392272949e-01 -1.909941285848617554e-01 1.692902892827987671e-01
8.314315676689147949e-01 -1.921218335628509521e-01 1.692927777767181396e-01
8.306131362915039062e-01 -1.930826306343078613e-01 1.701480895280838013e-01
8.292980790138244629e-01 -1.938717365264892578e-01 1.718562692403793335e-01
8.289789557456970215e-01 -1.949946582317352295e-01 1.718587428331375122e-01
8.276666402816772461e-01 -1.957742273807525635e-01 1.735668480396270752e-01
8.273484706878662109e-01 -1.968939602375030518e-01 1.735693216323852539e-01
8.250473141670227051e-01 -1.973142325878143311e-01 1.769830584526062012e-01
8.227498531341552734e-01 -1.977217644453048706e-01 1.803967654705047607e-01
8.224353194236755371e-01 -1.988287568092346191e-01 1.803992092609405518e-01
8.211320042610168457e-01 -1.995764672756195068e-01 1.821072399616241455e-01
8.208183646202087402e-01 -2.006802707910537720e-01 1.821096688508987427e-01
8.190242648124694824e-01 -2.012355923652648926e-01 1.846705228090286255e-01
8.177259564399719238e-01 -2.019657790660858154e-01 1.863785088062286377e-01
8.174145817756652832e-01 -2.030616253614425659e-01 1.863809227943420410e-01
8.166110515594482422e-01 -2.039698511362075806e-01 1.872361749410629272e-01
8.158084750175476074e-01 -2.048749029636383057e-01 1.880913525819778442e-01
8.154979944229125977e-01 -2.059675604104995728e-01 1.880937665700912476e-01
8.151875138282775879e-01 -2.070602178573608398e-01 1.880961805582046509e-01
8.153672814369201660e-01 -2.083468586206436157e-01 1.872458308935165405e-01
8.150563836097717285e-01 -2.094410955905914307e-01 1.872482448816299438e-01
8.152348399162292480e-01 -2.107325196266174316e-01 1.863978654146194458e-01
8.149234652519226074e-01 -2.118283659219741821e-01 1.864002794027328491e-01
8.146120309829711914e-01 -2.129242122173309326e-01 1.864026933908462524e-01
8.152767419815063477e-01 -2.144239246845245361e-01 1.846996247768402100e-01
8.164271712303161621e-01 -2.161335647106170654e-01 1.821437776088714600e-01
8.161135315895080566e-01 -2.172373682260513306e-01 1.821462213993072510e-01
8.172599077224731445e-01 -2.189613282680511475e-01 1.795904636383056641e-01
8.179173469543457031e-01 -2.204865515232086182e-01 1.778873950242996216e-01
8.461577296257019043e-01 -1.461041420698165894e-01 1.643598824739456177e-01
8.458349704742431641e-01 -1.472398042678833008e-01 1.643624007701873779e-01
8.455122709274291992e-01 -1.483754664659500122e-01 1.643649041652679443e-01
8.451895713806152344e-01 -1.495111286640167236e-01 1.643674075603485107e-01
8.448668718338012695e-01 -1.506467908620834351e-01 1.643699109554290771e-01
8.445441722869873047e-01 -1.517824530601501465e-01 1.643724143505096436e-01
8.442214727401733398e-01 -1.529181152582168579e-01 1.643749326467514038e-01
8.438987731933593750e-01 -1.540537774562835693e-01 1.643774360418319702e-01
8.435760736465454102e-01 -1.551894396543502808e-01 1.643799394369125366e-01
8.432533740997314453e-01 -1.563251018524169922e-01 1.643824428319931030e-01
8.429306149482727051e-01 -1.574607640504837036e-01 1.643849611282348633e-01
8.426079154014587402e-01 -1.585964262485504150e-01 1.643874645233154297e-01
8.422852158546447754e-01 -1.597320884466171265e-01 1.643899679183959961e-01
8.414527773857116699e-01 -1.607474386692047119e-01 1.652461886405944824e-01
8.411305546760559082e-01 -1.618815064430236816e-01 1.652486920356750488e-01
8.408082723617553711e-01 -1.630155742168426514e-01 1.652511954307556152e-01
8.404860496520996094e-01 -1.641496419906616211e-01 1.652536988258361816e-01
8.401637673377990723e-01 -1.652837097644805908e-01 1.652562022209167480e-01
8.398415446281433105e-01 -1.664177775382995605e-01 1.652587056159973145e-01
8.395192623138427734e-01 -1.675518602132797241e-01 1.652612090110778809e-01
8.391970396041870117e-01 -1.686859279870986938e-01 1.652637124061584473e-01
8.388747572898864746e-01 -1.698199957609176636e-01 1.652662158012390137e-01
8.385525345802307129e-01 -1.709540635347366333e-01 1.652687191963195801e-01
8.382302522659301758e-01 -1.720881313085556030e-01 1.652712225914001465e-01
8.379080295562744141e-01 -1.732221990823745728e-01 1.652737259864807129e-01
8.375857472419738770e-01 -1.743562668561935425e-01 1.652762293815612793e-01
8.372635245323181152e-01 -1.754903346300125122e-01 1.652787327766418457e-01
8.369412422180175781e-01 -1.766244173049926758e-01 1.652812361717224121e-01
8.366190195083618164e-01 -1.777584850788116455e-01 1.652837395668029785e-01
8.362967371940612793e-01 -1.788925528526306152e-01 1.652862429618835449e-01
8.359745144844055176e-01 -1.800266206264495850e-01 1.652887463569641113e-01
8.356522321701049805e-01 -1.811606884002685547e-01 1.652912497520446777e-01
8.353300094604492188e-01 -1.822947561740875244e-01 1.652937531471252441e-01
8.350077271461486816e-01 -1.834288239479064941e-01 1.652962565422058105e-01
8.341853022575378418e-01 -1.844091415405273438e-01 1.661524027585983276e-01
8.333637118339538574e-01 -1.853862553834915161e-01 1.670085936784744263e-01
8.330423235893249512e-01 -1.865171343088150024e-01 1.670110970735549927e-01
8.322221636772155762e-01 -1.874894797801971436e-01 1.678672134876251221e-01
8.319012522697448730e-01 -1.886187642812728882e-01 1.678697168827056885e-01
8.310824036598205566e-01 -1.895863413810729980e-01 1.687258332967758179e-01
8.302644491195678711e-01 -1.905507147312164307e-01 1.695819497108459473e-01
8.299444913864135742e-01 -1.916768252849578857e-01 1.695844233036041260e-01
8.286312818527221680e-01 -1.924699097871780396e-01 1.712941974401473999e-01
8.283121585845947266e-01 -1.935928314924240112e-01 1.712966710329055786e-01
8.270017504692077637e-01 -1.943763792514801025e-01 1.730063706636428833e-01
8.251978158950805664e-01 -1.949822604656219482e-01 1.755696982145309448e-01
8.248810172080993652e-01 -1.960972100496292114e-01 1.755721569061279297e-01
8.240698575973510742e-01 -1.970376968383789062e-01 1.764282286167144775e-01
8.217779397964477539e-01 -1.974468231201171875e-01 1.798451095819473267e-01
8.214634060859680176e-01 -1.985538154840469360e-01 1.798475533723831177e-01
8.201628923416137695e-01 -1.993023157119750977e-01 1.815571635961532593e-01
8.198492527008056641e-01 -2.004061192274093628e-01 1.815596073865890503e-01
8.180593848228454590e-01 -2.009626179933547974e-01 1.841228306293487549e-01
8.167638778686523438e-01 -2.016935944557189941e-01 1.858324110507965088e-01
8.164524435997009277e-01 -2.027894407510757446e-01 1.858348250389099121e-01
8.156503438949584961e-01 -2.036980688571929932e-01 1.866908669471740723e-01
8.148491382598876953e-01 -2.046035081148147583e-01 1.875468492507934570e-01
8.145386576652526855e-01 -2.056961655616760254e-01 1.875492632389068604e-01
8.142281770706176758e-01 -2.067888230085372925e-01 1.875516772270202637e-01
8.144065737724304199e-01 -2.080750614404678345e-01 1.867005228996276855e-01
8.140956759452819824e-01 -2.091693133115768433e-01 1.867029368877410889e-01
8.142727613449096680e-01 -2.104603350162506104e-01 1.858517527580261230e-01
8.139613270759582520e-01 -2.115561813116073608e-01 1.858541816473007202e-01
8.136499524116516113e-01 -2.126520276069641113e-01 1.858565956354141235e-01
8.147984743118286133e-01 -2.143525034189224243e-01 1.832984089851379395e-01
8.159442543983459473e-01 -2.160625457763671875e-01 1.807401776313781738e-01
8.156301975250244141e-01 -2.171679437160491943e-01 1.807426214218139648e-01
8.167719244956970215e-01 -2.188923209905624390e-01 1.781844347715377808e-01
8.441322445869445801e-01 -1.456236392259597778e-01 1.655030548572540283e-01
8.438104391098022461e-01 -1.467561274766921997e-01 1.655055582523345947e-01
8.440019488334655762e-01 -1.479909867048263550e-01 1.646535098552703857e-01
8.436796665191650391e-01 -1.491250693798065186e-01 1.646560132503509521e-01
8.433574438095092773e-01 -1.502591371536254883e-01 1.646585166454315186e-01
8.430351614952087402e-01 -1.513932049274444580e-01 1.646610200405120850e-01
8.427129387855529785e-01 -1.525272727012634277e-01 1.646635234355926514e-01
8.423906564712524414e-01 -1.536613404750823975e-01 1.646660268306732178e-01
8.420684337615966797e-01 -1.547954082489013672e-01 1.646685302257537842e-01
8.417461514472961426e-01 -1.559294760227203369e-01 1.646710336208343506e-01
8.414239287376403809e-01 -1.570635437965393066e-01 1.646735370159149170e-01
8.411016464233398438e-01 -1.581976264715194702e-01 1.646760404109954834e-01
8.407794237136840820e-01 -1.593316942453384399e-01 1.646785438060760498e-01
8.404571413993835449e-01 -1.604657620191574097e-01 1.646810472011566162e-01
