3.662300109863281250e-01 5.787436384707689285e-03 1.129226237535476685e-01
4.365845918655395508e-01 5.951390042901039124e-02 2.046666890382766724e-01
2.864682674407958984e-01 -1.125415489077568054e-01 9.059859812259674072e-02
-5.279185771942138672e-01 -5.896687135100364685e-02 -2.513272687792778015e-03
2.169901132583618164e-01 -2.205675244331359863e-01 2.346124500036239624e-01
2.590064108371734619e-01 2.599666118621826172e-01 -1.124352067708969116e-01
-6.001734733581542969e-02 -1.354935467243194580e-01 -1.710028946399688721e-01
1.349697113037109375e-01 1.108017005026340485e-02 -1.487843245267868042e-01
1.080876588821411133e-01 -2.616775929927825928e-01 6.759800016880035400e-02
2.584658563137054443e-01 1.827703714370727539e-01 -1.131584495306015015e-01
4.438328146934509277e-01 2.621748149394989014e-01 1.514185965061187744e-01
2.753223478794097900e-01 -1.594637483358383179e-01 1.771465837955474854e-01
4.402250945568084717e-01 2.331739217042922974e-01 1.546639651060104370e-01
-4.382796287536621094e-01 1.182496622204780579e-01 -1.191208213567733765e-01
1.349451541900634766e-01 -1.597116738557815552e-01 -1.657230034470558167e-02
2.464628033339977264e-02 1.501954048871994019e-01 -1.661827713251113892e-01
4.101241528987884521e-01 2.074944525957107544e-01 1.278015822172164917e-01
-1.019346411339938641e-03 1.195122823119163513e-01 -1.635853648185729980e-01
2.944384515285491943e-01 3.772177696228027344e-01 -4.482915252447128296e-02
-6.276027113199234009e-02 -2.772451639175415039e-01 3.739533573389053345e-02
1.906716823577880859e-01 -3.479458093643188477e-01 2.082502990961074829e-01
-3.513840492814779282e-03 -2.182058244943618774e-01 -4.683367162942886353e-02
-2.030398845672607422e-01 -4.320033788681030273e-01 1.301369816064834595e-01
4.615712165832519531e-01 1.576637029647827148e-01 2.188174277544021606e-01
2.202523648738861084e-01 4.818110167980194092e-01 1.470868736505508423e-01
3.708822727203369141e-01 2.016948461532592773e-01 3.476174175739288330e-02
3.048810958862304688e-01 -1.101559326052665710e-01 1.408923715353012085e-01
1.954235285520553589e-01 -1.810104548931121826e-01 6.391185522079467773e-02
-5.618991330265998840e-02 -3.032992780208587646e-01 9.295843541622161865e-02
3.977687358856201172e-01 2.058955729007720947e-01 1.142800599336624146e-01
-2.287671566009521484e-01 -3.008352220058441162e-01 8.612681925296783447e-02
1.922432780265808105e-01 6.760177761316299438e-02 -1.478528231382369995e-01
3.232474327087402344e-01 -6.324874609708786011e-02 9.327967464923858643e-02
4.731107652187347412e-01 4.021876156330108643e-01 1.513187885284423828e-01
-3.095712698996067047e-02 -1.895757168531417847e-01 -1.305614113807678223e-01
3.912453353404998779e-01 -1.025589779019355774e-01 2.052429765462875366e-01
1.102727651596069336e-01 2.853405475616455078e-01 -1.600437313318252563e-01
7.450079917907714844e-02 -7.323715835809707642e-02 -1.494521498680114746e-01
-2.790430188179016113e-01 3.841244056820869446e-02 -1.667760908603668213e-01
3.640785217285156250e-01 1.170544847846031189e-01 8.344468660652637482e-03
5.075645446777343750e-02 -1.869335323572158813e-01 -5.123956501483917236e-02
2.781190872192382812e-01 6.318015605211257935e-02 -8.168137073516845703e-02
2.331726551055908203e-01 4.899585247039794922e-01 1.945398002862930298e-01
2.932441234588623047e-01 -9.969144314527511597e-02 3.296644985675811768e-02
-5.355099439620971680e-01 2.359964251518249512e-01 -8.117866516113281250e-02
3.644084930419921875e-02 -4.145636558532714844e-01 1.648820191621780396e-01
3.654401302337646484e-01 5.686939358711242676e-01 2.124115377664566040e-01
4.721546173095703125e-01 4.570018947124481201e-01 1.516153812408447266e-01
3.613430857658386230e-01 -4.450928792357444763e-02 1.486718058586120605e-01
1.552934646606445312e-01 -4.136170744895935059e-01 1.541111022233963013e-01
4.051706790924072266e-01 5.262792482972145081e-02 1.322958618402481079e-01
2.426378726959228516e-01 4.472159147262573242e-01 1.057423502206802368e-01
1.476571559906005859e-01 -2.530913054943084717e-01 2.138492017984390259e-01
4.586517810821533203e-01 2.540332078933715820e-01 1.662173420190811157e-01
-2.267668992280960083e-01 2.330576926469802856e-01 -1.571951955556869507e-01
2.506361901760101318e-01 -1.485950946807861328e-01 9.399948269128799438e-02
1.942544430494308472e-01 -2.193354070186614990e-01 2.270690202713012695e-01
-5.779421329498291016e-01 -2.402835711836814880e-02 -1.297091096639633179e-01
3.794666826725006104e-01 1.353230513632297516e-02 1.247585415840148926e-01
-3.360574245452880859e-01 -2.638120055198669434e-01 9.719593822956085205e-02
4.464619755744934082e-01 3.453020751476287842e-01 1.469974666833877563e-01
4.984796047210693359e-01 4.511774182319641113e-01 1.480670124292373657e-01
2.961262464523315430e-01 -7.036694139242172241e-02 1.635857112705707550e-02
-2.141324803233146667e-02 2.352458238601684570e-01 -1.736017763614654541e-01
-3.142295032739639282e-02 -2.366880923509597778e-01 -4.346576333045959473e-02
2.739368379116058350e-02 -3.811879754066467285e-01 1.560910344123840332e-01
-9.413075447082519531e-02 -4.489575624465942383e-01 1.199088245630264282e-01
-5.818867683410644531e-02 -2.795950174331665039e-01 6.019539013504981995e-02
9.456633590161800385e-03 -2.223334312438964844e-01 -1.966725103557109833e-02
-2.551330626010894775e-01 1.510935276746749878e-01 -1.544172465801239014e-01
-3.724122047424316406e-02 -2.297537326812744141e-01 -6.579183042049407959e-02
8.039164543151855469e-02 -1.907347440719604492e-01 -1.528179645538330078e-02
2.522730231285095215e-01 -1.889270544052124023e-01 2.050140053033828735e-01
3.606173992156982422e-01 3.145639598369598389e-01 9.655469655990600586e-02
3.814761638641357422e-01 6.828360259532928467e-02 9.320513159036636353e-02
2.940671443939208984e-01 3.991271853446960449e-01 1.308720260858535767e-01
3.414654731750488281e-01 -5.374371632933616638e-02 1.423912197351455688e-01
2.756070494651794434e-01 -1.273582130670547485e-01 8.806664496660232544e-02
3.643124103546142578e-01 -1.587986350059509277e-01 2.204194515943527222e-01
1.944756507873535156e-01 -2.395460158586502075e-01 2.375410497188568115e-01
1.925026178359985352e-01 -2.664520442485809326e-01 2.446894496679306030e-01
-4.122908115386962891e-01 3.283525705337524414e-01 -1.556013673543930054e-01
-8.730769157409667969e-02 6.737501919269561768e-02 -1.644376069307327271e-01
4.093238413333892822e-01 1.805557012557983398e-01 1.181034445762634277e-01
3.386602103710174561e-01 -4.783320054411888123e-02 1.177486851811408997e-01
2.972899079322814941e-01 3.162513673305511475e-01 -6.993053853511810303e-02
3.264697492122650146e-01 -7.419071346521377563e-02 1.209284663200378418e-01
-1.893975734710693359e-01 -2.035943269729614258e-01 -7.658289372920989990e-02
5.386661887168884277e-01 3.127863109111785889e-01 1.658161282539367676e-01
-2.165548801422119141e-01 -3.136295080184936523e-01 9.902335703372955322e-02
1.183497905731201172e-01 -1.156371757388114929e-01 -8.359311521053314209e-02
4.734228253364562988e-01 9.146650880575180054e-02 2.396256774663925171e-01
2.481893897056579590e-01 4.601375460624694824e-01 1.818717569112777710e-01
-4.313573837280273438e-01 2.316414713859558105e-01 -1.144695729017257690e-01
2.212250232696533203e-01 -1.957513839006423950e-01 2.011718750000000000e-01
1.645847558975219727e-01 -3.006387054920196533e-01 2.409428209066390991e-01
1.294222623109817505e-01 -1.517450362443923950e-01 -3.586246818304061890e-02
2.156679630279541016e-01 -2.271183729171752930e-01 2.485824972391128540e-01
4.407730102539062500e-01 4.203337430953979492e-01 1.544041782617568970e-01
-2.998204343020915985e-02 2.054927647113800049e-01 -1.699329912662506104e-01
2.110338024795055389e-02 -4.561212062835693359e-01 1.312546879053115845e-01
-2.934638783335685730e-02 2.074236869812011719e-01 -1.735379546880722046e-01
-1.177331209182739258e-01 -2.673957347869873047e-01 -1.112876646220684052e-02
-1.843762584030628204e-02 -2.251350879669189453e-01 -5.663977563381195068e-02
-5.643074512481689453e-01 -1.442924737930297852e-01 -3.597520291805267334e-02
1.751675456762313843e-02 -7.934247702360153198e-02 -1.765615344047546387e-01
3.909392058849334717e-01 1.171234920620918274e-01 9.162240475416183472e-02
2.762603461742401123e-01 5.421394705772399902e-01 2.105026692152023315e-01
3.822486996650695801e-01 1.499336212873458862e-01 3.945654630661010742e-02
1.989354342222213745e-01 2.633394896984100342e-01 -1.413848698139190674e-01
-1.212537288665771484e-01 -2.895711064338684082e-01 1.772912032902240753e-02
3.140487670898437500e-01 3.266227245330810547e-01 -2.991644851863384247e-02
3.585474491119384766e-01 2.069537490606307983e-01 -1.838907226920127869e-02
-5.066740512847900391e-01 -1.919776946306228638e-02 -5.026911199092864990e-02
1.150496825575828552e-01 -2.726390361785888672e-01 1.192323714494705200e-01
5.436158180236816406e-02 -3.741707205772399902e-01 1.567534059286117554e-01
2.760282456874847412e-01 1.169183012098073959e-02 -7.496631145477294922e-02
3.062516450881958008e-01 3.443114161491394043e-01 3.393925726413726807e-02
2.493332624435424805e-01 5.128415822982788086e-01 2.143446058034896851e-01
5.439083576202392578e-01 2.215100526809692383e-01 1.884843260049819946e-01
4.162682890892028809e-01 -4.649625718593597412e-02 2.014457583427429199e-01
2.494801133871078491e-01 4.858576357364654541e-01 1.976314187049865723e-01
2.601411342620849609e-01 4.597986936569213867e-01 1.950203329324722290e-01
-1.108883768320083618e-01 2.572930753231048584e-01 -1.678501069545745850e-01
-1.175692081451416016e-01 -4.293076395988464355e-01 1.502111107110977173e-01
-2.522850036621093750e-01 1.771085858345031738e-01 -1.547559350728988647e-01
2.544482424855232239e-02 1.776376068592071533e-01 -1.691679060459136963e-01
3.021987974643707275e-01 3.485748767852783203e-01 9.146190248429775238e-03
-5.290297269821166992e-01 1.250611841678619385e-01 -8.568911254405975342e-02
-2.771333456039428711e-01 -2.354891896247863770e-01 2.808948047459125519e-02
3.024112582206726074e-01 4.822280406951904297e-01 2.059551626443862915e-01
-1.408832669258117676e-01 -3.303075730800628662e-01 1.206990182399749756e-01
3.424889147281646729e-01 2.862318456172943115e-01 1.116103399544954300e-02
2.787623703479766846e-01 -7.475779205560684204e-02 -1.615732163190841675e-02
3.527056574821472168e-01 2.315573841333389282e-01 -2.257853001356124878e-02
4.999111890792846680e-01 3.720879554748535156e-01 1.699274778366088867e-01
3.536824584007263184e-01 1.535908728837966919e-01 -3.757792338728904724e-02
3.319894075393676758e-01 1.209730282425880432e-01 -4.731016233563423157e-02
-4.749580323696136475e-01 -2.383118569850921631e-01 -1.438463013619184494e-02
4.034545421600341797e-01 2.290833368897438049e-02 1.541305929422378540e-01
4.361344277858734131e-01 -1.053872480988502502e-01 2.059045433998107910e-01
3.293196558952331543e-01 9.770739823579788208e-02 -4.316776245832443237e-02
3.379048109054565430e-01 -7.638622075319290161e-02 1.439603269100189209e-01
3.022985756397247314e-01 1.215468719601631165e-01 -6.875337660312652588e-02
-1.561825275421142578e-01 -4.266049861907958984e-01 1.477948576211929321e-01
3.284982442855834961e-01 6.890397518873214722e-02 -4.362238943576812744e-02
3.235118389129638672e-01 4.061058163642883301e-02 -3.989282250404357910e-02
3.078110814094543457e-01 1.751928180456161499e-01 -7.704049348831176758e-02
3.083253502845764160e-01 1.159218605607748032e-02 -4.643035307526588440e-02
3.032500743865966797e-01 -1.648473367094993591e-02 -4.427815601229667664e-02
2.981741428375244141e-01 -3.873220831155776978e-02 -4.052545875310897827e-02
2.783884108066558838e-01 2.341681718826293945e-01 -9.836602210998535156e-02
2.653343677520751953e-01 -9.687852114439010620e-02 -9.422881528735160828e-03
1.381813436746597290e-01 1.487987637519836426e-01 -1.588803231716156006e-01
5.061584711074829102e-02 -1.579982936382293701e-01 -1.058232188224792480e-01
8.982840925455093384e-02 -3.109126091003417969e-01 1.194171682000160217e-01
4.772900603711605072e-03 -2.866368889808654785e-01 7.420535385608673096e-02
5.708551406860351562e-02 -3.562772572040557861e-01 1.406577229499816895e-01
4.965925216674804688e-02 -4.609207808971405029e-01 1.241629272699356079e-01
-5.348929166793823242e-01 -1.604447960853576660e-01 1.530129741877317429e-02
2.551734447479248047e-01 3.607708215713500977e-01 -1.023973077535629272e-01
-2.799599170684814453e-01 -1.599593162536621094e-01 -1.251869797706604004e-01
2.846002578735351562e-01 4.021538794040679932e-01 1.208958476781845093e-01
-4.802381992340087891e-01 -8.289014548063278198e-02 -1.239879056811332703e-03
2.247216701507568359e-01 -3.186135292053222656e-01 2.216417938470840454e-01
3.460361957550048828e-01 2.620031833648681641e-01 1.203315332531929016e-03
-4.475985467433929443e-01 3.907498717308044434e-02 -1.041821911931037903e-01
5.030070543289184570e-01 3.191434741020202637e-01 1.818595081567764282e-01
3.504430353641510010e-01 2.029108107089996338e-01 -4.128938540816307068e-02
3.087379932403564453e-01 -7.702786475419998169e-02 6.498502939939498901e-02
3.493735790252685547e-01 1.795621365308761597e-01 -3.770023956894874573e-02
3.335840702056884766e-01 1.473306268453598022e-01 -5.262687802314758301e-02
2.508836388587951660e-01 -9.883674979209899902e-02 -2.034271508455276489e-02
-1.675806343555450439e-01 -3.293499052524566650e-01 1.192579790949821472e-01
2.741719782352447510e-01 -7.079879194498062134e-02 -3.760594502091407776e-02
-5.339906215667724609e-01 9.298715740442276001e-02 -1.016487404704093933e-01
1.348253935575485229e-01 -2.360077947378158569e-01 6.957752257585525513e-02
2.232805825769901276e-02 -4.102675616741180420e-01 1.613919734954833984e-01
1.870901584625244141e-01 -1.789360046386718750e-01 4.404278099536895752e-02
-4.880070686340332031e-02 -3.073949813842773438e-01 1.130731254816055298e-01
-1.146916151046752930e-01 -1.602263003587722778e-01 -1.510940194129943848e-01
2.465604692697525024e-01 5.717984437942504883e-01 2.112711966037750244e-01
2.219469547271728516e-01 5.167302489280700684e-01 2.119353264570236206e-01
4.637494981288909912e-01 6.337007135152816772e-02 2.433757185935974121e-01
2.551209926605224609e-01 4.361493289470672607e-01 1.473756581544876099e-01
-1.167255043983459473e-01 -3.817992806434631348e-01 1.571157872676849365e-01
2.839774489402770996e-01 3.724717795848846436e-01 -5.445085465908050537e-02
2.707312107086181641e-01 4.193661212921142578e-01 1.292435079813003540e-01
3.014903068542480469e-01 3.727931976318359375e-01 6.585349142551422119e-02
3.040813505649566650e-01 3.468933403491973877e-01 -2.302577346563339233e-02
3.393202424049377441e-01 1.749201416969299316e-01 -5.517348647117614746e-02
3.074079453945159912e-01 6.355478614568710327e-02 -5.727892369031906128e-02
2.563264369964599609e-01 -8.425831049680709839e-02 -2.516983263194561005e-02
1.912748217582702637e-01 -1.531869918107986450e-01 1.271251030266284943e-02
-3.954102993011474609e-01 -1.507615670561790466e-02 -1.098471283912658691e-01
3.630290925502777100e-01 3.764554858207702637e-01 1.461442708969116211e-01
1.643719375133514404e-01 -1.859673112630844116e-01 3.450752794742584229e-02
1.169631481170654297e-01 -2.511683702468872070e-01 9.115864336490631104e-02
-5.358364582061767578e-01 1.792355626821517944e-01 -7.621078938245773315e-02
-8.111540228128433228e-02 1.514155864715576172e-01 -1.648290455341339111e-01
1.655925661325454712e-01 -1.597184985876083374e-01 6.430285051465034485e-03
-9.084464050829410553e-03 -3.103030920028686523e-01 1.069860607385635376e-01
-3.725401461124420166e-01 -4.907049611210823059e-02 -1.085023209452629089e-01
8.253979682922363281e-02 -2.978841662406921387e-01 9.478867799043655396e-02
1.107810363173484802e-01 2.319719046354293823e-01 -1.676290482282638550e-01
5.622172355651855469e-02 -3.390315771102905273e-01 1.364498287439346313e-01
2.450163364410400391e-01 5.907438993453979492e-01 2.006448209285736084e-01
2.189291119575500488e-01 5.400109887123107910e-01 2.136569619178771973e-01
-7.436370849609375000e-02 -7.579111307859420776e-02 -1.723887175321578979e-01
1.395803987979888916e-01 -3.843365311622619629e-01 1.833551377058029175e-01
2.355492115020751953e-01 4.804549217224121094e-01 1.881139427423477173e-01
2.809028625488281250e-01 4.049013555049896240e-01 9.575964510440826416e-02
2.956440448760986328e-01 3.879657983779907227e-01 7.871402800083160400e-02
3.320943713188171387e-01 2.894134819507598877e-01 -1.872200705111026764e-02
3.415525853633880615e-01 2.038124650716781616e-01 -5.519722402095794678e-02
3.123123645782470703e-01 9.057863056659698486e-02 -5.880862101912498474e-02
4.111652374267578125e-01 4.542793631553649902e-01 1.793050616979598999e-01
3.051531314849853516e-01 -4.775517806410789490e-02 1.310187298804521561e-02
2.875178754329681396e-01 1.180770918726921082e-01 -8.143936097621917725e-02
2.460553646087646484e-01 -9.146641939878463745e-02 -3.857158124446868896e-02
2.638251781463623047e-01 -3.570878133177757263e-02 -6.505702435970306396e-02
3.328912854194641113e-01 3.673670589923858643e-01 1.234867721796035767e-01
-1.754837036132812500e-01 -3.215601444244384766e-01 1.035205870866775513e-01
1.943175792694091797e-01 -1.416984796524047852e-01 1.173155382275581360e-03
-4.596571028232574463e-01 1.769998073577880859e-01 -9.367015212774276733e-02
4.516382217407226562e-01 1.083326712250709534e-02 2.222173362970352173e-01
1.705062389373779297e-01 -1.693348288536071777e-01 2.934046275913715363e-02
-3.854250013828277588e-01 -3.238841593265533447e-01 1.396752744913101196e-01
-2.012984007596969604e-01 -3.317757248878479004e-01 1.188826933503150940e-01
1.524274349212646484e-01 -2.034971714019775391e-01 4.783178865909576416e-02
1.097576022148132324e-01 -2.463281303644180298e-01 5.931006371974945068e-02
1.582783460617065430e-01 -1.490369439125061035e-01 -1.887543313205242157e-02
-4.661576747894287109e-01 6.218556780368089676e-03 -8.939515054225921631e-02
9.257165342569351196e-02 -2.802254855632781982e-01 8.582343161106109619e-02
2.593219093978404999e-02 -1.982359290122985840e-01 -4.886300861835479736e-02
1.120893955230712891e-01 2.302716970443725586e-01 -1.757984012365341187e-01
5.083164945244789124e-02 -3.323664665222167969e-01 1.180341914296150208e-01
4.410791397094726562e-02 -3.528895676136016846e-01 1.276484280824661255e-01
3.062243759632110596e-01 -7.494143396615982056e-02 4.107578843832015991e-02
2.203399091958999634e-01 5.672731995582580566e-01 2.084886431694030762e-01
2.195636034011840820e-01 4.873899519443511963e-01 1.786859482526779175e-01
-4.215040206909179688e-01 1.472636759281158447e-01 -1.238449662923812866e-01
2.324373722076416016e-01 4.635975360870361328e-01 1.708153635263442993e-01
2.460563927888870239e-01 5.430778861045837402e-01 2.166656404733657837e-01
3.012399673461914062e-01 3.674861490726470947e-01 3.691045939922332764e-02
-9.610892273485660553e-03 1.822637319564819336e-01 -1.776062101125717163e-01
3.151057958602905273e-01 3.240465521812438965e-01 7.479505613446235657e-03
3.338275253772735596e-01 2.605423629283905029e-01 -4.728182777762413025e-02
-2.736473083496093750e-01 -1.211631223559379578e-01 -1.514581292867660522e-01
2.908103466033935547e-01 2.767169848084449768e-02 -6.053231656551361084e-02
1.956185102462768555e-01 -1.285058557987213135e-01 -1.951136998832225800e-02
1.360584944486618042e-01 -2.117172330617904663e-01 3.659646958112716675e-02
-1.694822907447814941e-01 2.358832210302352905e-01 -1.624324321746826172e-01
5.623769760131835938e-02 -3.185890614986419678e-01 1.014621406793594360e-01
1.636305153369903564e-01 -6.955987960100173950e-02 -9.810119122266769409e-02
3.259618952870368958e-02 -3.518241345882415771e-01 1.260113120079040527e-01
-3.252089023590087891e-02 -3.264895975589752197e-01 1.256390959024429321e-01
1.827295497059822083e-02 -3.565116226673126221e-01 1.374434828758239746e-01
-4.830659367144107819e-03 -3.824740052223205566e-01 1.543362289667129517e-01
-1.170499324798583984e-01 -3.291337788105010986e-01 1.246555820107460022e-01
-1.742080152034759521e-01 -1.931678801774978638e-01 -9.754446148872375488e-02
1.977385282516479492e-01 5.209245681762695312e-01 2.054490298032760620e-01
1.745305061340332031e-01 -1.942722797393798828e-01 8.535255491733551025e-02
-1.304428577423095703e-01 -3.079661130905151367e-01 7.949437201023101807e-02
-4.603171348571777344e-02 -1.498398780822753906e-01 -1.736485809087753296e-01
3.253977298736572266e-01 1.802310943603515625e-01 -6.555225700139999390e-02
3.200438022613525391e-01 1.614537239074707031e-01 -6.550918519496917725e-02
3.298018574714660645e-01 -1.004770919680595398e-01 1.504569053649902344e-01
3.027311861515045166e-01 1.470788717269897461e-01 -7.488514482975006104e-02
2.954308986663818359e-01 6.964454799890518188e-02 -7.131294906139373779e-02
-1.072140559554100037e-01 -2.929470241069793701e-01 3.774795681238174438e-02
3.041482865810394287e-01 3.179278671741485596e-01 -4.550145566463470459e-02
1.649054735898971558e-01 2.056015282869338989e-01 -1.565320789813995361e-01
2.926485538482666016e-01 4.762351885437965393e-02 -7.170842587947845459e-02
-4.570939540863037109e-01 8.444789797067642212e-03 -8.498369157314300537e-02
2.777676880359649658e-01 3.716840222477912903e-02 -7.791962474584579468e-02
-1.200463771820068359e-01 -1.025556251406669617e-01 -1.694827526807785034e-01
2.677874565124511719e-01 -1.399916037917137146e-02 -6.627427041530609131e-02
-2.841165065765380859e-01 -2.207862436771392822e-01 -1.425145380198955536e-02
1.580569744110107422e-01 -1.758546829223632812e-01 1.925017125904560089e-02
3.886962831020355225e-01 -1.264740526676177979e-01 2.100668549537658691e-01
2.782003879547119141e-01 4.067750871181488037e-01 3.482579812407493591e-02
1.466279774904251099e-01 -1.922665834426879883e-01 2.790158614516258240e-02
-2.067635059356689453e-01 -2.253898382186889648e-01 -1.858632080256938934e-02
2.423456460237503052e-01 1.233937218785285950e-01 -1.277859807014465332e-01
1.192109584808349609e-01 -2.233256101608276367e-01 5.166114866733551025e-02
8.042248338460922241e-02 -2.684045135974884033e-01 6.753899157047271729e-02
2.357465773820877075e-02 -3.298916816711425781e-01 1.153535991907119751e-01
1.899914741516113281e-01 2.575670182704925537e-01 -1.482331007719039917e-01
5.124195292592048645e-02 -7.677019387483596802e-02 -1.611032336950302124e-01
-6.971979979425668716e-03 -3.615066707134246826e-01 1.504891067743301392e-01
-8.084237575531005859e-02 -2.768107056617736816e-01 3.241129219532012939e-02
1.678656786680221558e-01 1.492330282926559448e-01 -1.570617854595184326e-01
-2.319042682647705078e-01 -1.434676647186279297e-01 -1.444278806447982788e-01
-2.856797166168689728e-02 -4.106203317642211914e-01 1.495855301618576050e-01
-4.128677845001220703e-01 4.324645176529884338e-02 -1.217666119337081909e-01
1.899405121803283691e-01 5.421648621559143066e-01 2.118101865053176880e-01
3.306431174278259277e-01 4.586863219738006592e-01 2.029688358306884766e-01
2.286697179079055786e-01 3.118735551834106445e-01 -1.240546554327011108e-01
2.958409786224365234e-01 3.912028074264526367e-01 3.276194632053375244e-02
2.756211757659912109e-01 -2.121705263853073120e-01 2.321646362543106079e-01
1.931728124618530273e-01 -1.015906110405921936e-01 -4.651872813701629639e-02
3.245320320129394531e-01 2.584086358547210693e-01 -6.419612467288970947e-02
-5.743448734283447266e-01 1.854348182678222656e-01 -1.003661602735519409e-01
-1.394360065460205078e-01 -2.151124626398086548e-01 -8.146358281373977661e-02
1.880962848663330078e-01 -1.151043102145195007e-01 -2.890334837138652802e-02
-2.004907131195068359e-01 -2.954708635807037354e-01 6.458918005228042603e-02
1.368670761585235596e-01 -2.738118469715118408e-01 2.083011567592620850e-01
3.264150619506835938e-01 2.306849956512451172e-01 -7.267298549413681030e-02
2.118244171142578125e-01 -9.935187548398971558e-02 -4.164169728755950928e-02
-2.295205593109130859e-01 -7.522987574338912964e-02 -1.717562973499298096e-01
2.148563116788864136e-01 -1.550930142402648926e-01 3.544693440198898315e-02
5.087457597255706787e-02 -1.036483272910118103e-01 -1.541807949542999268e-01
-3.088007681071758270e-02 -3.849158585071563721e-01 1.498448848724365234e-01
1.743924617767333984e-01 -1.409920454025268555e-01 -4.817945882678031921e-03
-4.231847822666168213e-01 -7.956127077341079712e-02 -5.386601388454437256e-02
8.148694038391113281e-02 -4.101104140281677246e-01 1.677610278129577637e-01
1.382502764463424683e-01 -1.867991387844085693e-01 1.255719177424907684e-02
1.086233854293823242e-01 -2.145097702741622925e-01 3.110666759312152863e-02
1.055240631103515625e-01 -2.344307303428649902e-01 4.161755740642547607e-02
3.734778463840484619e-01 5.558578670024871826e-02 9.094041585922241211e-02
2.865059375762939453e-01 -1.417611837387084961e-01 1.633973270654678345e-01
5.249757170677185059e-01 4.563449323177337646e-01 1.307900547981262207e-01
2.767561674118041992e-01 2.616409659385681152e-01 -1.023762971162796021e-01
1.937937736511230469e-01 5.938623547554016113e-01 2.067462801933288574e-01
1.748366355895996094e-01 5.249156355857849121e-01 1.677832156419754028e-01
3.117467463016510010e-01 2.974824607372283936e-01 -5.039525777101516724e-02
3.079749345779418945e-01 2.067898362874984741e-01 -7.984936237335205078e-02
4.121067523956298828e-01 4.265691637992858887e-01 1.612199097871780396e-01
2.919371128082275391e-01 -1.238990947604179382e-01 1.179689317941665649e-01
4.934954643249511719e-01 2.391998767852783203e-01 1.867246180772781372e-01
2.827299535274505615e-01 9.108810126781463623e-02 -8.349899947643280029e-02
-5.467021465301513672e-01 4.858327284455299377e-02 -1.197988837957382202e-01
1.665909290313720703e-01 -1.364260911941528320e-01 -2.098916284739971161e-02
-1.429068595170974731e-01 -1.306745260953903198e-01 -1.594762653112411499e-01
5.309128761291503906e-02 -2.698665857315063477e-01 6.280606985092163086e-02
-5.797226428985595703e-01 -3.774618729948997498e-02 -1.240047067403793335e-01
2.646490372717380524e-02 -3.024577498435974121e-01 9.057520329952239990e-02
3.428111076354980469e-01 3.006387352943420410e-01 3.466023504734039307e-02
3.540301322937011719e-02 -3.149118423461914062e-01 9.454382956027984619e-02
-5.767338275909423828e-01 1.050434187054634094e-01 -1.349868625402450562e-01
3.754127025604248047e-01 1.339489221572875977e-01 1.323928125202655792e-02
6.765055656433105469e-02 -3.710249662399291992e-01 1.564043909311294556e-01
-3.007769770920276642e-02 -3.548163473606109619e-01 1.443974524736404419e-01
2.957043647766113281e-01 1.991907954216003418e-01 -9.309963881969451904e-02
1.601167917251586914e-01 2.822896838188171387e-01 -1.539679616689682007e-01
1.929136514663696289e-01 5.129776000976562500e-01 1.745099276304244995e-01
1.650725603103637695e-01 6.506467610597610474e-02 -1.582874804735183716e-01
5.142408609390258789e-02 -2.112595885992050171e-01 -1.872177235782146454e-02
7.909911870956420898e-02 -4.540486261248588562e-02 -1.512648612260818481e-01
4.686648845672607422e-01 3.828052897006273270e-03 2.185323387384414673e-01
1.541726589202880859e-01 -4.517948254942893982e-02 -1.210753321647644043e-01
-4.109175205230712891e-01 -2.641738653182983398e-01 5.347003042697906494e-02
2.701444625854492188e-01 4.215741157531738281e-01 3.747250139713287354e-02
2.821412980556488037e-01 3.997269570827484131e-01 6.065146997570991516e-03
-1.106211170554161072e-01 -1.364526897668838501e-01 -1.657810509204864502e-01
4.248824119567871094e-01 2.616776823997497559e-01 1.382507830858230591e-01
2.949366569519042969e-01 3.732053041458129883e-01 -2.421484701335430145e-02
-1.154131442308425903e-01 -2.394419163465499878e-01 -5.789531022310256958e-02
3.259968757629394531e-02 -4.280352592468261719e-01 1.649129539728164673e-01
3.058395385742187500e-01 2.625656127929687500e-01 -7.689934968948364258e-02
-4.997637271881103516e-01 -2.104932665824890137e-01 -1.226289197802543640e-03
4.429078102111816406e-02 -2.888388633728027344e-01 7.702006399631500244e-02
1.392804235219955444e-01 2.614690661430358887e-01 -1.623781025409698486e-01
1.819007396697998047e-01 -1.234967634081840515e-01 -3.998909890651702881e-02
3.198840618133544922e-01 3.353271484375000000e-01 4.472328722476959229e-02
1.111121624708175659e-01 -1.882670223712921143e-01 3.825347404927015305e-03
1.617376208305358887e-01 -9.903199225664138794e-02 -7.135175168514251709e-02
7.686591148376464844e-02 -4.328229427337646484e-01 1.584572196006774902e-01
3.670904636383056641e-01 4.542463719844818115e-01 1.881108433008193970e-01
-2.221251605078577995e-03 -3.236511647701263428e-01 1.180749312043190002e-01
-5.946389958262443542e-02 -4.105873107910156250e-01 1.535161435604095459e-01
4.724097251892089844e-02 -1.756458282470703125e-01 -9.352360665798187256e-02
-3.515059128403663635e-03 -1.016738340258598328e-01 -1.799413859844207764e-01
1.046145930886268616e-01 -1.893488876521587372e-02 -1.510235816240310669e-01
-3.481743335723876953e-01 -2.278805971145629883e-01 2.616311796009540558e-02
1.689341813325881958e-01 5.687551498413085938e-01 2.036046832799911499e-01
2.460944652557373047e-01 4.491443634033203125e-01 7.080949842929840088e-02
2.322235852479934692e-01 1.501339375972747803e-01 -1.401835530996322632e-01
3.338299691677093506e-01 5.745534319430589676e-03 3.303023800253868103e-02
2.558903694152832031e-01 4.348138570785522461e-01 3.710837662220001221e-02
-4.148213863372802734e-01 -3.142359256744384766e-01 4.341738298535346985e-03
-2.698252201080322266e-01 -3.997876644134521484e-01 1.388578563928604126e-01
2.869398593902587891e-01 3.813884854316711426e-01 -6.864530965685844421e-03
9.719363600015640259e-02 -1.231139078736305237e-01 -9.658171981573104858e-02
2.944713532924652100e-01 1.792161911725997925e-01 -9.071563184261322021e-02
-4.535604417324066162e-01 6.690705567598342896e-02 -1.102262735366821289e-01
5.029944777488708496e-01 2.280955910682678223e-01 1.964239627122879028e-01
3.060146570205688477e-01 -1.288402676582336426e-01 1.493833661079406738e-01
2.693449556827545166e-01 9.503708779811859131e-02 -9.718690812587738037e-02
2.943609952926635742e-01 -9.991615265607833862e-02 7.003684341907501221e-02
2.669917047023773193e-01 6.525862962007522583e-02 -9.694038331508636475e-02
-1.397024840116500854e-01 -1.834677010774612427e-01 -1.225946769118309021e-01
-1.038245740346610546e-03 -1.841181889176368713e-02 -1.674070507287979126e-01
1.628990173339843750e-01 -8.301012963056564331e-02 -8.114759624004364014e-02
2.506684362888336182e-01 3.936810418963432312e-02 -1.015656888484954834e-01
2.775396704673767090e-01 4.310636222362518311e-01 1.743223965167999268e-01
-1.968302130699157715e-01 -3.567451536655426025e-01 1.466547399759292603e-01
1.918015927076339722e-01 -7.608401030302047729e-02 -7.571141421794891357e-02
1.692582815885543823e-01 -1.065086051821708679e-01 -5.222807824611663818e-02
6.487536430358886719e-02 -2.567409276962280273e-01 4.648531973361968994e-02
2.411906979978084564e-02 -2.775031030178070068e-01 6.473113596439361572e-02
-5.299898982048034668e-01 6.298012286424636841e-02 -1.132260784506797791e-01
1.400256901979446411e-01 -2.193700969219207764e-01 6.044858321547508240e-02
3.347157500684261322e-03 -3.142745494842529297e-01 1.049893051385879517e-01
1.721084117889404297e-01 5.882731676101684570e-01 2.023071199655532837e-01
2.174040079116821289e-01 5.042482614517211914e-01 1.818315833806991577e-01
-2.496791072189807892e-02 -3.432420492172241211e-01 1.309989839792251587e-01
3.558593392372131348e-01 9.417278319597244263e-02 7.888602092862129211e-03
-5.839610099792480469e-02 -3.537144362926483154e-01 1.528252661228179932e-01
1.438560038805007935e-01 -7.869953662157058716e-02 -1.068156585097312927e-01
-2.246555089950561523e-01 1.228617057204246521e-01 -1.628057360649108887e-01
-1.131522655487060547e-01 1.787733435630798340e-01 -1.652614325284957886e-01
-6.091053411364555359e-02 -3.819969594478607178e-01 1.544964164495468140e-01
1.946207731962203979e-01 3.500535339117050171e-02 -1.363465636968612671e-01
-5.831360816955566406e-02 -4.452597498893737793e-01 1.290024966001510620e-01
8.151771873235702515e-02 -2.421208322048187256e-01 4.083731770515441895e-02
1.123972982168197632e-01 -4.636397957801818848e-02 -1.414829492568969727e-01
-4.090826511383056641e-01 -2.813467979431152344e-01 9.348787367343902588e-02
2.708976268768310547e-01 4.237892031669616699e-01 5.636410787701606750e-03
2.749803066253662109e-01 4.075781702995300293e-01 -2.166031114757061005e-02
2.895252704620361328e-01 2.107101678848266602e-01 -8.897219598293304443e-02
7.804405689239501953e-02 2.111930847167968750e-01 -1.656825691461563110e-01
2.748987674713134766e-01 1.776921600103378296e-01 -1.016512736678123474e-01
3.690907955169677734e-01 -2.047243118286132812e-01 2.071077972650527954e-01
2.569232881069183350e-01 6.821160018444061279e-02 -1.072203367948532104e-01
3.918271362781524658e-01 6.438617128878831863e-03 1.474990993738174438e-01
3.262937068939208984e-01 2.854816615581512451e-01 -4.459796845912933350e-02
2.218097746372222900e-01 6.788698956370353699e-03 -1.053654849529266357e-01
4.437493085861206055e-01 3.731483817100524902e-01 1.464145332574844360e-01
2.008335590362548828e-01 -5.841993913054466248e-02 -8.094869554042816162e-02
1.628012955188751221e-01 -2.153899371623992920e-01 9.253549575805664062e-02
4.179676771163940430e-01 -2.381066605448722839e-02 2.007173448801040649e-01
2.998328022658824921e-02 -2.186090648174285889e-01 -2.132335491478443146e-02
5.445906892418861389e-02 -2.441193312406539917e-01 3.303761407732963562e-02
-6.796027068048715591e-03 -2.957968413829803467e-01 9.687172621488571167e-02
1.651669144630432129e-01 2.621326744556427002e-01 -1.539595276117324829e-01
2.734151780605316162e-01 4.203975498676300049e-01 -2.290628664195537567e-02
2.803530693054199219e-01 3.990775346755981445e-01 -4.793153703212738037e-02
-1.426974982023239136e-01 2.324194312095642090e-01 -1.623013019561767578e-01
2.740153074264526367e-01 2.052588164806365967e-01 -1.033596172928810120e-01
-2.268588542938232422e-01 3.378067314624786377e-01 -1.570778489112854004e-01
2.452730536460876465e-01 1.745789796113967896e-01 -1.283212900161743164e-01
-5.097068548202514648e-01 1.224132329225540161e-01 -8.063045144081115723e-02
2.089989185333251953e-01 -4.044413194060325623e-02 -9.306620061397552490e-02
1.918550878763198853e-01 -4.459848254919052124e-02 -9.939379990100860596e-02
-3.106026947498321533e-01 9.100829064846038818e-02 -1.587452888488769531e-01
3.315818309783935547e-01 4.070231616497039795e-01 1.748466938734054565e-01
2.247500233352184296e-02 -2.091493606567382812e-01 -4.674063622951507568e-02
-5.344353914260864258e-01 2.084777206182479858e-01 -8.067199587821960449e-02
-8.550199121236801147e-02 1.774850934743881226e-01 -1.650067269802093506e-01
1.102923154830932617e-01 -1.677039563655853271e-01 -2.751795761287212372e-02
2.923142723739147186e-02 -2.631878256797790527e-01 4.701276123523712158e-02
-3.908697962760925293e-01 2.353994399309158325e-01 -1.367857009172439575e-01
3.254948854446411133e-01 -4.126619920134544373e-02 6.378383934497833252e-02
-1.421795636415481567e-01 -3.819547295570373535e-01 1.589902043342590332e-01
-2.634877152740955353e-02 -2.970936894416809082e-01 9.137970209121704102e-02
-1.984172463417053223e-01 -1.030894294381141663e-01 -1.683191061019897461e-01
2.457063198089599609e-01 4.456175565719604492e-01 1.167051941156387329e-01
1.050445362925529480e-01 -9.923812001943588257e-02 -1.255983263254165649e-01
1.420435458421707153e-01 -3.243214190006256104e-01 2.247507572174072266e-01
-3.698658943176269531e-02 -3.107482790946960449e-01 1.197722107172012329e-01
9.002494812011718750e-02 2.007552981376647949e-01 -1.737693399190902710e-01
-8.545150607824325562e-02 -3.542728126049041748e-01 1.483672261238098145e-01
2.552993297576904297e-01 4.324945211410522461e-01 5.255477502942085266e-03
2.792102694511413574e-01 3.448113203048706055e-01 -8.282490074634552002e-02
3.646275103092193604e-01 -2.559377253055572510e-02 1.441817581653594971e-01
4.787402153015136719e-01 1.724541783332824707e-01 2.255699187517166138e-01
2.464718222618103027e-01 9.298295527696609497e-02 -1.232889443635940552e-01
4.711047410964965820e-01 1.496449112892150879e-01 2.341420054435729980e-01
2.413816004991531372e-01 6.456623226404190063e-02 -1.193671524524688721e-01
2.374355792999267578e-01 3.817361965775489807e-02 -1.174309700727462769e-01
-3.849809169769287109e-01 5.849067587405443192e-03 -1.288197487592697144e-01
2.752549648284912109e-01 4.170322418212890625e-01 1.456370502710342407e-01
-1.904361248016357422e-01 -3.441386222839355469e-01 1.310060173273086548e-01
-4.151585996150970459e-01 1.724905073642730713e-01 -1.243470758199691772e-01
2.209206521511077881e-01 3.674725815653800964e-02 -1.258679628372192383e-01
-2.848649024963378906e-01 -3.856789469718933105e-01 1.333937197923660278e-01
1.977546960115432739e-01 -1.837128773331642151e-02 -1.075134798884391785e-01
1.099763214588165283e-01 -1.571750044822692871e-01 -4.392615333199501038e-02
3.372430503368377686e-01 3.720282763242721558e-02 1.095305941998958588e-02
2.181358635425567627e-01 1.812145411968231201e-01 -1.492424756288528442e-01
5.819261074066162109e-02 -2.238325774669647217e-01 3.818409517407417297e-03
3.523252010345458984e-01 6.982842832803726196e-02 1.542525179684162140e-02
4.446727931499481201e-01 6.637461483478546143e-02 2.314054667949676514e-01
-2.687072940170764923e-02 -4.564786553382873535e-01 1.152845770120620728e-01
-6.456303596496582031e-02 -3.401619195938110352e-01 1.371237188577651978e-01
-4.173165559768676758e-01 6.876001507043838501e-02 -1.211334615945816040e-01
1.890779584646224976e-01 5.714681148529052734e-01 2.111441642045974731e-01
2.890603542327880859e-01 -8.344625681638717651e-02 2.830995805561542511e-02
2.748637795448303223e-01 3.142864108085632324e-01 -9.869746863842010498e-02
2.225042134523391724e-01 6.565960496664047241e-02 -1.314492076635360718e-01
1.417520046234130859e-01 -1.072212979197502136e-01 -7.868278026580810547e-02
2.815475463867187500e-01 -2.044190466403961182e-02 -5.808699503540992737e-02
1.136148571968078613e-01 6.654909998178482056e-02 -1.592754274606704712e-01
4.120683670043945312e-02 -2.355253696441650391e-01 2.175261266529560089e-02
-1.598239876329898834e-03 -2.779671251773834229e-01 5.816088616847991943e-02
3.414690494537353516e-01 6.097636744379997253e-02 4.700844176113605499e-03
-8.818292617797851562e-02 -3.375025391578674316e-01 1.380130201578140259e-01
4.338485300540924072e-01 2.053557038307189941e-01 1.545301675796508789e-01
2.536952495574951172e-01 2.350879758596420288e-01 -1.114441454410552979e-01
-2.275820821523666382e-01 3.214064836502075195e-01 -1.606101244688034058e-01
1.976942829787731171e-02 2.543417215347290039e-01 -1.731458753347396851e-01
2.438170909881591797e-01 1.500442326068878174e-01 -1.280202269554138184e-01
-1.960315704345703125e-01 -1.526587828993797302e-02 -1.655835062265396118e-01
2.095468044281005859e-01 2.050710096955299377e-02 -1.202511638402938843e-01
-5.546855926513671875e-01 8.182529360055923462e-03 -1.011466011404991150e-01
1.664414405822753906e-01 -4.992369934916496277e-02 -1.082316786050796509e-01
1.108954399824142456e-01 -1.325975358486175537e-01 -7.415655255317687988e-02
1.131265163421630859e-01 -1.439319849014282227e-01 -5.469904839992523193e-02
2.630751132965087891e-01 4.280840158462524414e-01 1.649171262979507446e-01
-2.273902297019958496e-01 -4.081110358238220215e-01 1.486863195896148682e-01
-3.251255489885807037e-03 -2.671697139739990234e-01 3.857037425041198730e-02
2.860403060913085938e-01 3.502404689788818359e-01 -5.728761851787567139e-02
-1.128885075449943542e-01 -3.560873568058013916e-01 1.480654776096343994e-01
-1.147251129150390625e-01 -4.417579174041748047e-01 1.262519508600234985e-01
2.660027742385864258e-01 3.477337956428527832e-01 -9.702335298061370850e-02
-5.742366313934326172e-01 8.499658852815628052e-02 -1.488627046346664429e-01
4.740822315216064453e-01 -7.582660298794507980e-03 2.231017500162124634e-01
1.741613596677780151e-01 -2.717307768762111664e-02 -1.133332848548889160e-01
2.442600727081298828e-01 2.036895602941513062e-01 -1.222564578056335449e-01
1.859567165374755859e-01 -1.355409249663352966e-02 -1.183315366506576538e-01
1.014404296875000000e-01 -1.558471918106079102e-01 -6.812797486782073975e-02
8.843445777893066406e-02 -1.668434739112854004e-01 -5.504862964153289795e-02
8.254940062761306763e-02 -2.049639821052551270e-02 -1.532355993986129761e-01
6.117355823516845703e-02 -1.932184100151062012e-01 -2.888016216456890106e-02
4.129797518253326416e-01 -1.576890610158443451e-02 1.832147985696792603e-01
2.691387943923473358e-02 -2.268304228782653809e-01 3.831760957837104797e-03
-5.557984113693237305e-01 -1.079721376299858093e-01 2.676374278962612152e-02
-1.926379203796386719e-01 -4.619925841689109802e-02 -1.705037206411361694e-01
3.247253000736236572e-01 3.145455420017242432e-01 -2.249022200703620911e-02
9.661435149610042572e-03 -2.505956888198852539e-01 2.573527581989765167e-02
4.234260320663452148e-01 3.452692925930023193e-01 1.384761482477188110e-01
-2.881884761154651642e-02 -2.815752029418945312e-01 6.494928896427154541e-02
7.913838326930999756e-02 2.894260287284851074e-01 -1.525677144527435303e-01
-4.160714149475097656e-02 -2.917658090591430664e-01 7.802022993564605713e-02
2.412971705198287964e-01 4.531594216823577881e-01 1.557774692773818970e-01
1.125866398215293884e-01 -1.081538423895835876e-01 -1.059738695621490479e-01
-5.014395117759704590e-01 -1.894325762987136841e-01 2.507708221673965454e-02
2.527225911617279053e-01 3.401273190975189209e-01 -1.096625328063964844e-01
2.181708812713623047e-01 -2.668418586254119873e-01 2.468071877956390381e-01
2.573531568050384521e-01 3.186558187007904053e-01 -1.112692430615425110e-01
-5.311984419822692871e-01 -5.100648105144500732e-02 -2.184282056987285614e-02
2.466384619474411011e-01 2.634770870208740234e-01 -1.194482669234275818e-01
-3.071580827236175537e-01 6.618464738130569458e-02 -1.609855741262435913e-01
3.359125852584838867e-01 4.260354638099670410e-01 1.828890293836593628e-01
2.639627270400524139e-02 -2.381232976913452148e-01 8.311228826642036438e-03
2.015244960784912109e-01 5.346143618226051331e-02 -1.385666579008102417e-01
-1.704163551330566406e-01 -3.868198692798614502e-01 1.661962419748306274e-01
-2.033997774124145508e-01 -4.563361033797264099e-02 -1.762284487485885620e-01
-3.401360008865594864e-03 -2.456422150135040283e-01 7.507778238505125046e-03
-1.352517604827880859e-01 -4.345774650573730469e-01 1.326327472925186157e-01
-5.125277042388916016e-01 -3.609406575560569763e-02 -3.437016904354095459e-02
2.252768278121948242e-01 2.078815400600433350e-01 -1.347376257181167603e-01
2.166690826416015625e-01 1.207372620701789856e-01 -1.499495208263397217e-01
-6.664157845079898834e-03 -4.751589521765708923e-02 -1.753783971071243286e-01
1.647245287895202637e-01 9.029630571603775024e-03 -1.374392062425613403e-01
3.365423679351806641e-01 3.282399177551269531e-01 9.097857773303985596e-02
3.854200243949890137e-01 3.841796517372131348e-02 1.210652738809585571e-01
-1.666947156190872192e-01 -4.130491912364959717e-01 1.538994461297988892e-01
-5.698702335357666016e-01 -7.570361346006393433e-02 -3.106866590678691864e-02
-1.679454594850540161e-01 -4.326199591159820557e-01 1.455814242362976074e-01
2.415903806686401367e-01 3.176653981208801270e-01 -1.212007552385330200e-01
-3.917915821075439453e-01 -8.332347124814987183e-02 -7.785360515117645264e-02
-1.159457564353942871e-01 2.056028991937637329e-01 -1.673778891563415527e-01
2.219665497541427612e-01 2.613462209701538086e-01 -1.320524066686630249e-01
1.951422095298767090e-01 9.488276392221450806e-02 -1.538896262645721436e-01
1.850738525390625000e-01 4.284590855240821838e-02 -1.455758064985275269e-01
3.914833366870880127e-01 -2.068428881466388702e-02 1.726969331502914429e-01
1.723423004150390625e-01 3.106713667511940002e-02 -1.413473933935165405e-01
1.358970850706100464e-01 -4.675793275237083435e-02 -1.304117441177368164e-01
-5.709197521209716797e-01 -1.080727800726890564e-01 -1.759563200175762177e-02
3.305276334285736084e-01 3.181517720222473145e-01 4.075552523136138916e-02
-1.825810410082340240e-03 -2.337633967399597168e-01 -1.701028458774089813e-02
3.925108313560485840e-01 -7.703792303800582886e-02 2.000094950199127197e-01
-3.183666989207267761e-02 -2.632113397121429443e-01 1.198070961982011795e-02
-2.301353812217712402e-01 6.518275290727615356e-02 -1.660399734973907471e-01
-1.191007494926452637e-01 1.232654526829719543e-01 -1.622360497713088989e-01
2.210724353790283203e-01 2.908145785331726074e-01 -1.329410821199417114e-01
1.921931952238082886e-01 1.216161772608757019e-01 -1.537947803735733032e-01
1.634269803762435913e-01 3.946657106280326843e-02 -1.511983573436737061e-01
2.474932670593261719e-01 4.389293789863586426e-01 7.309193909168243408e-02
1.131847947835922241e-01 -7.523082941770553589e-02 -1.329305320978164673e-01
6.166577339172363281e-02 -1.663373261690139771e-01 -8.737745136022567749e-02
4.981493949890136719e-02 -1.793421804904937744e-01 -7.642593234777450562e-02
7.962512969970703125e-02 -2.031902074813842773e-01 -8.586568757891654968e-03
1.182997226715087891e-01 -1.470040902495384216e-02 -1.444953083992004395e-01
-3.151454031467437744e-01 -2.036838084459304810e-01 -6.347992271184921265e-02
-1.689341068267822266e-01 -3.361767530441284180e-01 1.365082412958145142e-01
-8.506926149129867554e-02 -2.940533757209777832e-01 5.559424310922622681e-02
-5.697794556617736816e-01 -1.021283194422721863e-01 1.855148561298847198e-02
3.788065910339355469e-01 4.562014713883399963e-02 1.013195663690567017e-01
3.297725915908813477e-01 3.126496076583862305e-01 1.233704574406147003e-02
-1.841199398040771484e-01 -3.969089984893798828e-01 1.651028543710708618e-01
-1.866338253021240234e-01 -4.057244062423706055e-01 1.651231199502944946e-01
-5.606447458267211914e-01 -7.372350990772247314e-02 1.194114517420530319e-02
3.872236013412475586e-01 1.775092929601669312e-01 6.407932937145233154e-02
-1.763648986816406250e-01 -4.407491683959960938e-01 1.302524954080581665e-01
1.917178034782409668e-01 1.770136803388595581e-01 -1.556130349636077881e-01
1.695836335420608521e-01 9.164129197597503662e-02 -1.610945016145706177e-01
3.893668651580810547e-01 4.260967969894409180e-01 1.736775338649749756e-01
1.545717716217041016e-01 1.575887575745582581e-02 -1.483362764120101929e-01
2.709118463099002838e-02 -1.876488029956817627e-01 -7.644075155258178711e-02
9.976816177368164062e-02 -2.134961485862731934e-01 1.720018871128559113e-02
-2.305528372526168823e-01 -4.361631572246551514e-01 1.206913515925407410e-01
3.976451456546783447e-01 3.269019722938537598e-02 1.404900252819061279e-01
1.397370360791683197e-03 -2.304459810256958008e-01 -3.632830083370208740e-02
-1.692759990692138672e-01 -3.459334969520568848e-01 1.332529932260513306e-01
2.208028137683868408e-01 -7.996715605258941650e-02 -5.354756861925125122e-02
1.362849920988082886e-01 3.541943430900573730e-02 -1.543911248445510864e-01
-4.871237277984619141e-01 3.645784035325050354e-02 -8.674199879169464111e-02
-4.508815109729766846e-01 -2.153829932212829590e-01 1.601570472121238708e-02
-2.702262401580810547e-01 -3.426656723022460938e-01 1.299824863672256470e-01
6.267213821411132812e-02 -1.401525139808654785e-01 -1.090476363897323608e-01
1.938607692718505859e-01 2.881400883197784424e-01 -1.417309641838073730e-01
7.310628890991210938e-02 -3.211405277252197266e-01 1.061315089464187622e-01
2.026274204254150391e-01 2.810432910919189453e-01 -1.451735943555831909e-01
-2.541314065456390381e-01 -3.601098060607910156e-01 1.380243897438049316e-01
8.961109817028045654e-02 -7.955295592546463013e-02 -1.405767053365707397e-01
-5.132623910903930664e-01 -7.450690120458602905e-02 5.700819659978151321e-03
-3.151760995388031006e-01 1.191001012921333313e-01 -1.549883335828781128e-01
2.078811265528202057e-02 -1.797028779983520508e-01 -1.006931662559509277e-01
-2.627835273742675781e-01 -2.803164124488830566e-01 8.797265589237213135e-02
-2.712250687181949615e-03 -2.055587172508239746e-01 -7.870846986770629883e-02
1.668779104948043823e-01 -1.540129072964191437e-02 -1.267462968826293945e-01
-5.232214927673339844e-02 -2.533447742462158203e-01 -2.151332609355449677e-02
-9.962534904479980469e-02 -2.850472927093505859e-01 4.660107195377349854e-02
-3.162387385964393616e-02 1.464943289756774902e-01 -1.654884517192840576e-01
-1.128798350691795349e-01 -2.080627977848052979e-01 -1.026396155357360840e-01
