8.807888031005859375e-01 -2.183022201061248779e-01 1.862712651491165161e-01 8.820171904522731217e-39 2.000000000000000000e+00 6.000000000000000000e+00
8.799033164978027344e-01 -2.192468643188476562e-01 1.870896816253662109e-01 8.819092904705201108e-39 2.000000000000000000e+00 6.000000000000000000e+00
8.784601688385009766e-01 -2.199864536523818970e-01 1.887238919734954834e-01 8.819092904705201108e-39 2.000000000000000000e+00 6.000000000000000000e+00
8.781350851058959961e-01 -2.211266010999679565e-01 1.887265145778656006e-01 8.910566865859396517e-39 2.000000000000000000e+00 6.000000000000000000e+00
8.766946196556091309e-01 -2.218566238880157471e-01 1.903607398271560669e-01 9.279349385312687275e-39 2.000000000000000000e+00 6.000000000000000000e+00
8.763704299926757812e-01 -2.229935824871063232e-01 1.903633475303649902e-01 8.910922795669335020e-39 2.000000000000000000e+00 6.000000000000000000e+00
8.749327659606933594e-01 -2.237140536308288574e-01 1.919975131750106812e-01 9.095314055395980400e-39 2.000000000000000000e+00 6.000000000000000000e+00
8.723842501640319824e-01 -2.240084856748580933e-01 1.952632665634155273e-01 9.094235055578450290e-39 2.000000000000000000e+00 6.000000000000000000e+00
8.720628023147583008e-01 -2.251358926296234131e-01 1.952658444643020630e-01 9.002039425715127601e-39 2.000000000000000000e+00 6.000000000000000000e+00
8.706305027008056641e-01 -2.258372455835342407e-01 1.969000250101089478e-01 9.094235055578450290e-39 2.000000000000000000e+00 6.000000000000000000e+00
8.703099489212036133e-01 -2.269614636898040771e-01 1.969026029109954834e-01 9.094235055578450290e-39 2.000000000000000000e+00 6.000000000000000000e+00
8.688804507255554199e-01 -2.276532799005508423e-01 1.985366940498352051e-01 9.278626315305095669e-39 2.000000000000000000e+00 6.000000000000000000e+00
8.674527406692504883e-01 -2.283387333154678345e-01 2.001707851886749268e-01 9.370821945168418359e-39 2.000000000000000000e+00 6.000000000000000000e+00
8.671340346336364746e-01 -2.294565737247467041e-01 2.001733481884002686e-01 9.370821945168418359e-39 2.000000000000000000e+00 6.000000000000000000e+00
8.657090067863464355e-01 -2.301324605941772461e-01 2.018074542284011841e-01 9.370821945168418359e-39 2.000000000000000000e+00 6.000000000000000000e+00
8.648384809494018555e-01 -2.310245484113693237e-01 2.026257663965225220e-01 9.278626315305095669e-39 2.000000000000000000e+00 6.000000000000000000e+00
8.645211458206176758e-01 -2.321376204490661621e-01 2.026283144950866699e-01 9.002039425715127601e-39 2.000000000000000000e+00 6.000000000000000000e+00
8.631002306938171387e-01 -2.327991873025894165e-01 2.042623460292816162e-01 8.818727165806012331e-39 2.000000000000000000e+00 6.000000000000000000e+00
8.627837896347045898e-01 -2.339090704917907715e-01 2.042648941278457642e-01 8.818727165806012331e-39 2.000000000000000000e+00 6.000000000000000000e+00
8.619164228439331055e-01 -2.347900122404098511e-01 2.050832211971282959e-01 8.818727165806012331e-39 2.000000000000000000e+00 6.000000000000000000e+00
8.610500097274780273e-01 -2.356677800416946411e-01 2.059014886617660522e-01 8.818727165806012331e-39 2.000000000000000000e+00 6.000000000000000000e+00
8.607344627380371094e-01 -2.367744743824005127e-01 2.059040218591690063e-01 8.818727165806012331e-39 2.000000000000000000e+00 6.000000000000000000e+00
8.604188561439514160e-01 -2.378811836242675781e-01 2.059065550565719604e-01 8.910922795669335020e-39 2.000000000000000000e+00 6.000000000000000000e+00
8.601033091545104980e-01 -2.389878928661346436e-01 2.059091031551361084e-01 9.096402864302760782e-39 2.000000000000000000e+00 6.000000000000000000e+00
8.597877621650695801e-01 -2.400946021080017090e-01 2.059116363525390625e-01 1.020275042266263306e-38 2.000000000000000000e+00 6.000000000000000000e+00
8.594722151756286621e-01 -2.412013113498687744e-01 2.059141695499420166e-01 9.557743949921634358e-39 2.000000000000000000e+00 6.000000000000000000e+00
8.613473176956176758e-01 -2.432683855295181274e-01 2.026538401842117310e-01 9.373352690194988979e-39 2.000000000000000000e+00 6.000000000000000000e+00
9.101504683494567871e-01 -1.438498497009277344e-01 1.732750833034515381e-01 7.357317201257053582e-39 2.000000000000000000e+00 6.000000000000000000e+00
9.104047417640686035e-01 -1.451134383678436279e-01 1.724609434604644775e-01 7.541344123382974509e-39 2.000000000000000000e+00 6.000000000000000000e+00
9.100710153579711914e-01 -1.462838500738143921e-01 1.724636256694793701e-01 7.541344123382974509e-39 2.000000000000000000e+00 6.000000000000000000e+00
9.097373485565185547e-01 -1.474542468786239624e-01 1.724663078784942627e-01 7.909407776724066636e-39 2.000000000000000000e+00 6.000000000000000000e+00
9.099898338317871094e-01 -1.487242132425308228e-01 1.716521680355072021e-01 7.632820887134098567e-39 2.000000000000000000e+00 6.000000000000000000e+00
9.096556305885314941e-01 -1.498962044715881348e-01 1.716548651456832886e-01 7.725016516997421257e-39 2.000000000000000000e+00 6.000000000000000000e+00
9.093214869499206543e-01 -1.510681957006454468e-01 1.716575473546981812e-01 7.540625257270775878e-39 2.000000000000000000e+00 6.000000000000000000e+00
9.095721244812011719e-01 -1.523445397615432739e-01 1.708434224128723145e-01 7.723215848470763867e-39 2.000000000000000000e+00 6.000000000000000000e+00
9.092375040054321289e-01 -1.535181254148483276e-01 1.708461195230484009e-01 7.538824588744118488e-39 2.000000000000000000e+00 6.000000000000000000e+00
9.089028835296630859e-01 -1.546917110681533813e-01 1.708488166332244873e-01 7.997281802123411589e-39 2.000000000000000000e+00 6.000000000000000000e+00
9.085682630538940430e-01 -1.558652967214584351e-01 1.708514988422393799e-01 7.997281802123411589e-39 2.000000000000000000e+00 6.000000000000000000e+00
9.082336425781250000e-01 -1.570388823747634888e-01 1.708541959524154663e-01 7.904358898357104320e-39 2.000000000000000000e+00 6.000000000000000000e+00
9.078989624977111816e-01 -1.582124680280685425e-01 1.708568781614303589e-01 7.904358898357104320e-39 2.000000000000000000e+00 6.000000000000000000e+00
9.075643420219421387e-01 -1.593860536813735962e-01 1.708595752716064453e-01 7.995109789503708123e-39 2.000000000000000000e+00 6.000000000000000000e+00
9.078114032745361328e-01 -1.606751233339309692e-01 1.700454801321029663e-01 7.902914159640385433e-39 2.000000000000000000e+00 6.000000000000000000e+00
9.074763059616088867e-01 -1.618503034114837646e-01 1.700481772422790527e-01 8.086216610460250430e-39 2.000000000000000000e+00 6.000000000000000000e+00
9.071412086486816406e-01 -1.630254834890365601e-01 1.700508743524551392e-01 8.178412240323573119e-39 2.000000000000000000e+00 6.000000000000000000e+00
9.073864817619323730e-01 -1.643209308385848999e-01 1.692367494106292725e-01 8.637948453520396330e-39 2.000000000000000000e+00 6.000000000000000000e+00
9.076308012008666992e-01 -1.656195670366287231e-01 1.684226840734481812e-01 9.098926602837009778e-39 2.000000000000000000e+00 6.000000000000000000e+00
9.072948098182678223e-01 -1.667979210615158081e-01 1.684253811836242676e-01 9.283317862563655157e-39 2.000000000000000000e+00 6.000000000000000000e+00
9.069588184356689453e-01 -1.679762899875640869e-01 1.684280782938003540e-01 9.283317862563655157e-39 2.000000000000000000e+00 6.000000000000000000e+00
9.066228270530700684e-01 -1.691546589136123657e-01 1.684307903051376343e-01 9.191119430103403818e-39 2.000000000000000000e+00 6.000000000000000000e+00
9.068648815155029297e-01 -1.704612374305725098e-01 1.676167398691177368e-01 9.191119430103403818e-39 2.000000000000000000e+00 6.000000000000000000e+00
9.065284729003906250e-01 -1.716412007808685303e-01 1.676194369792938232e-01 9.190037627688945059e-39 2.000000000000000000e+00 6.000000000000000000e+00
9.061920046806335449e-01 -1.728211492300033569e-01 1.676221489906311035e-01 9.005646367962299680e-39 2.000000000000000000e+00 6.000000000000000000e+00
9.058555364608764648e-01 -1.740011125802993774e-01 1.676248610019683838e-01 9.373705817407998833e-39 2.000000000000000000e+00 6.000000000000000000e+00
9.055191278457641602e-01 -1.751810610294342041e-01 1.676275581121444702e-01 9.373705817407998833e-39 2.000000000000000000e+00 6.000000000000000000e+00
9.051826596260070801e-01 -1.763610243797302246e-01 1.676302701234817505e-01 9.373705817407998833e-39 2.000000000000000000e+00 6.000000000000000000e+00
9.048461914062500000e-01 -1.775409728288650513e-01 1.676329672336578369e-01 9.373705817407998833e-39 2.000000000000000000e+00 6.000000000000000000e+00
9.045097827911376953e-01 -1.787209361791610718e-01 1.676356792449951172e-01 9.465901447271321522e-39 2.000000000000000000e+00 6.000000000000000000e+00
9.041733145713806152e-01 -1.799008846282958984e-01 1.676383912563323975e-01 9.650292706997966901e-39 2.000000000000000000e+00 6.000000000000000000e+00
9.038368463516235352e-01 -1.810808479785919189e-01 1.676410883665084839e-01 9.834321030422352153e-39 2.000000000000000000e+00 6.000000000000000000e+00
9.029269218444824219e-01 -1.821166574954986572e-01 1.684605181217193604e-01 9.834321030422352153e-39 2.000000000000000000e+00 6.000000000000000000e+00
9.025908708572387695e-01 -1.832950115203857422e-01 1.684632152318954468e-01 9.834321030422352153e-39 2.000000000000000000e+00 6.000000000000000000e+00
9.022548794746398926e-01 -1.844733804464340210e-01 1.684659272432327271e-01 9.742125400559029463e-39 2.000000000000000000e+00 6.000000000000000000e+00
9.013467431068420410e-01 -1.855028122663497925e-01 1.692853271961212158e-01 9.742481330368967967e-39 2.000000000000000000e+00 6.000000000000000000e+00
9.010112285614013672e-01 -1.866795867681503296e-01 1.692880243062973022e-01 9.742481330368967967e-39 2.000000000000000000e+00 6.000000000000000000e+00
9.006756544113159180e-01 -1.878563612699508667e-01 1.692907363176345825e-01 1.001907242385432901e-38 2.000000000000000000e+00 6.000000000000000000e+00
8.997693061828613281e-01 -1.888794153928756714e-01 1.701101660728454590e-01 1.020346368358097439e-38 2.000000000000000000e+00 6.000000000000000000e+00
8.994342088699340820e-01 -1.900545954704284668e-01 1.701128631830215454e-01 1.020346368358097439e-38 2.000000000000000000e+00 6.000000000000000000e+00
8.990991115570068359e-01 -1.912297755479812622e-01 1.701155602931976318e-01 1.020346368358097439e-38 2.000000000000000000e+00 6.000000000000000000e+00
8.981946110725402832e-01 -1.922464668750762939e-01 1.709349453449249268e-01 1.011234705353518181e-38 2.000000000000000000e+00 6.000000000000000000e+00
8.978599905967712402e-01 -1.934200525283813477e-01 1.709376424551010132e-01 1.011234705353518181e-38 2.000000000000000000e+00 6.000000000000000000e+00
8.975253701210021973e-01 -1.945936381816864014e-01 1.709403246641159058e-01 9.191825684529423526e-39 2.000000000000000000e+00 6.000000000000000000e+00
8.971907496452331543e-01 -1.957672238349914551e-01 1.709430217742919922e-01 8.546456275486164699e-39 2.000000000000000000e+00 6.000000000000000000e+00
8.968560695648193359e-01 -1.969408094882965088e-01 1.709457039833068848e-01 8.729765732798351319e-39 2.000000000000000000e+00 6.000000000000000000e+00
8.959543108940124512e-01 -1.979479491710662842e-01 1.717650741338729858e-01 8.729765732798351319e-39 2.000000000000000000e+00 6.000000000000000000e+00
8.956201076507568359e-01 -1.991199404001235962e-01 1.717677563428878784e-01 9.465894440778999898e-39 2.000000000000000000e+00 6.000000000000000000e+00
8.952859640121459961e-01 -2.002919465303421021e-01 1.717704385519027710e-01 9.004916291462386450e-39 2.000000000000000000e+00 6.000000000000000000e+00
8.943859934806823730e-01 -2.012927085161209106e-01 1.725897938013076782e-01 8.819446031918210962e-39 2.000000000000000000e+00 6.000000000000000000e+00
8.940522670745849609e-01 -2.024631202220916748e-01 1.725924760103225708e-01 9.003837291644856341e-39 2.000000000000000000e+00 6.000000000000000000e+00
8.925887346267700195e-01 -2.032846957445144653e-01 1.742285043001174927e-01 9.096032921508179031e-39 2.000000000000000000e+00 6.000000000000000000e+00
8.916914463043212891e-01 -2.042759060859680176e-01 1.750478297472000122e-01 9.280424181234824410e-39 2.000000000000000000e+00 6.000000000000000000e+00
8.913590908050537109e-01 -2.054415345191955566e-01 1.750504970550537109e-01 9.650292706997966901e-39 2.000000000000000000e+00 6.000000000000000000e+00
8.904632329940795898e-01 -2.064279764890670776e-01 1.758698076009750366e-01 1.066444463549451649e-38 2.000000000000000000e+00 6.000000000000000000e+00
8.895682096481323242e-01 -2.074112296104431152e-01 1.766891181468963623e-01 1.066840750755162707e-38 2.000000000000000000e+00 6.000000000000000000e+00
8.892368078231811523e-01 -2.085736691951751709e-01 1.766917854547500610e-01 1.131377691659488590e-38 2.000000000000000000e+00 6.000000000000000000e+00
8.883431553840637207e-01 -2.095521390438079834e-01 1.775111258029937744e-01 1.067272911201560480e-38 2.000000000000000000e+00 6.000000000000000000e+00
8.880121111869812012e-01 -2.107129842042922974e-01 1.775137782096862793e-01 1.150248978078550901e-38 2.000000000000000000e+00 6.000000000000000000e+00
8.865586519241333008e-01 -2.114995419979095459e-01 1.791496872901916504e-01 9.566381553655732530e-39 2.000000000000000000e+00 6.000000000000000000e+00
8.851069211959838867e-01 -2.122797369956970215e-01 1.807855665683746338e-01 1.021175096269899136e-38 2.000000000000000000e+00 6.000000000000000000e+00
8.847777247428894043e-01 -2.134342193603515625e-01 1.807882189750671387e-01 9.195082302160514400e-39 2.000000000000000000e+00 6.000000000000000000e+00
8.833287358283996582e-01 -2.142048329114913940e-01 1.824241280555725098e-01 8.734104152843900953e-39 2.000000000000000000e+00 6.000000000000000000e+00
8.830004930496215820e-01 -2.153561264276504517e-01 1.824267655611038208e-01 8.915254209222563030e-39 2.000000000000000000e+00 6.000000000000000000e+00
8.821132183074951172e-01 -2.163123190402984619e-01 1.832460165023803711e-01 8.730862949495917651e-39 2.000000000000000000e+00 6.000000000000000000e+00
8.806683421134948730e-01 -2.170686125755310059e-01 1.848818361759185791e-01 8.912367534386053907e-39 2.000000000000000000e+00 6.000000000000000000e+00
8.803414106369018555e-01 -2.182151377201080322e-01 1.848844736814498901e-01 8.820171904522731217e-39 2.000000000000000000e+00 6.000000000000000000e+00
8.788992166519165039e-01 -2.189618647098541260e-01 1.865203231573104858e-01 8.910566865859396517e-39 2.000000000000000000e+00 6.000000000000000000e+00
8.780160546302795410e-01 -2.199037224054336548e-01 1.873395442962646484e-01 8.910566865859396517e-39 2.000000000000000000e+00 6.000000000000000000e+00
8.776904940605163574e-01 -2.210454642772674561e-01 1.873421519994735718e-01 9.095314055395980400e-39 2.000000000000000000e+00 6.000000000000000000e+00
8.756961226463317871e-01 -2.215732038021087646e-01 1.897945553064346313e-01 9.279705315122625779e-39 2.000000000000000000e+00 6.000000000000000000e+00
8.753719329833984375e-01 -2.227101624011993408e-01 1.897971630096435547e-01 9.094235055578450290e-39 2.000000000000000000e+00 6.000000000000000000e+00
8.744924068450927734e-01 -2.236392796039581299e-01 1.906163543462753296e-01 9.278626315305095669e-39 2.000000000000000000e+00 6.000000000000000000e+00
8.719490766525268555e-01 -2.239368855953216553e-01 1.938852667808532715e-01 9.094235055578450290e-39 2.000000000000000000e+00 6.000000000000000000e+00
8.716271519660949707e-01 -2.250658869743347168e-01 1.938878595829010010e-01 9.002039425715127601e-39 2.000000000000000000e+00 6.000000000000000000e+00
8.701972365379333496e-01 -2.257696390151977539e-01 1.955235749483108521e-01 9.094235055578450290e-39 2.000000000000000000e+00 6.000000000000000000e+00
8.698762059211730957e-01 -2.268954515457153320e-01 1.955261528491973877e-01 9.094235055578450290e-39 2.000000000000000000e+00 6.000000000000000000e+00
8.678959608078002930e-01 -2.273738384246826172e-01 1.979784518480300903e-01 9.370821945168418359e-39 2.000000000000000000e+00 6.000000000000000000e+00
8.664710521697998047e-01 -2.280600816011428833e-01 1.996141225099563599e-01 9.370821945168418359e-39 2.000000000000000000e+00 6.000000000000000000e+00
8.661522865295410156e-01 -2.291779369115829468e-01 1.996166855096817017e-01 9.370821945168418359e-39 2.000000000000000000e+00 6.000000000000000000e+00
8.647300601005554199e-01 -2.298545986413955688e-01 2.012523710727691650e-01 9.370821945168418359e-39 2.000000000000000000e+00 6.000000000000000000e+00
8.633097410202026367e-01 -2.305249124765396118e-01 2.028880119323730469e-01 9.278626315305095669e-39 2.000000000000000000e+00 6.000000000000000000e+00
8.629927635192871094e-01 -2.316364049911499023e-01 2.028905600309371948e-01 9.094235055578450290e-39 2.000000000000000000e+00 6.000000000000000000e+00
8.621255159378051758e-01 -2.325225174427032471e-01 2.037096470594406128e-01 8.909843795851804911e-39 2.000000000000000000e+00 6.000000000000000000e+00
8.618090152740478516e-01 -2.336324155330657959e-01 2.037121802568435669e-01 9.002039425715127601e-39 2.000000000000000000e+00 6.000000000000000000e+00
8.603936433792114258e-01 -2.342851907014846802e-01 2.053478360176086426e-01 8.818727165806012331e-39 2.000000000000000000e+00 6.000000000000000000e+00
8.595290780067443848e-01 -2.351617664098739624e-01 2.061668932437896729e-01 8.818727165806012331e-39 2.000000000000000000e+00 6.000000000000000000e+00
8.592139482498168945e-01 -2.362668812274932861e-01 2.061694264411926270e-01 8.818727165806012331e-39 2.000000000000000000e+00 6.000000000000000000e+00
8.583507537841796875e-01 -2.371386736631393433e-01 2.069884687662124634e-01 8.910922795669335020e-39 2.000000000000000000e+00 6.000000000000000000e+00
8.580361008644104004e-01 -2.382421940565109253e-01 2.069910019636154175e-01 9.004207234439438093e-39 2.000000000000000000e+00 6.000000000000000000e+00
8.582686185836791992e-01 -2.395822256803512573e-01 2.061770260334014893e-01 1.038714168238927844e-38 2.000000000000000000e+00 6.000000000000000000e+00
8.579535484313964844e-01 -2.406873255968093872e-01 2.061795592308044434e-01 9.374431690012519088e-39 2.000000000000000000e+00 6.000000000000000000e+00
8.587309718132019043e-01 -2.422718256711959839e-01 2.045491039752960205e-01 9.005649170559228330e-39 2.000000000000000000e+00 6.000000000000000000e+00
8.584149479866027832e-01 -2.433801293373107910e-01 2.045516371726989746e-01 9.007096711872875866e-39 2.000000000000000000e+00 6.000000000000000000e+00
9.090431928634643555e-01 -1.459921002388000488e-01 1.718807816505432129e-01 7.357317201257053582e-39 2.000000000000000000e+00 6.000000000000000000e+00
9.087094664573669434e-01 -1.471624970436096191e-01 1.718834638595581055e-01 7.909770713026326763e-39 2.000000000000000000e+00 6.000000000000000000e+00
9.089605212211608887e-01 -1.484320610761642456e-01 1.710685491561889648e-01 7.540988193573036005e-39 2.000000000000000000e+00 6.000000000000000000e+00
9.086263775825500488e-01 -1.496040672063827515e-01 1.710712313652038574e-01 7.724660587187482753e-39 2.000000000000000000e+00 6.000000000000000000e+00
9.082921743392944336e-01 -1.507760584354400635e-01 1.710739135742187500e-01 7.632464957324160064e-39 2.000000000000000000e+00 6.000000000000000000e+00
9.085415005683898926e-01 -1.520519852638244629e-01 1.702589988708496094e-01 7.907609910794337895e-39 2.000000000000000000e+00 6.000000000000000000e+00
9.082068204879760742e-01 -1.532255858182907104e-01 1.702616959810256958e-01 7.631023021204369827e-39 2.000000000000000000e+00 6.000000000000000000e+00
9.078722000122070312e-01 -1.543991714715957642e-01 1.702643930912017822e-01 7.812890542396766210e-39 2.000000000000000000e+00 6.000000000000000000e+00
9.075375795364379883e-01 -1.555727571249008179e-01 1.702670753002166748e-01 7.812890542396766210e-39 2.000000000000000000e+00 6.000000000000000000e+00
9.072029590606689453e-01 -1.567463427782058716e-01 1.702697724103927612e-01 7.903995962054844192e-39 2.000000000000000000e+00 6.000000000000000000e+00
9.068683385848999023e-01 -1.579199284315109253e-01 1.702724695205688477e-01 7.903995962054844192e-39 2.000000000000000000e+00 6.000000000000000000e+00
9.065336585044860840e-01 -1.590935140848159790e-01 1.702751517295837402e-01 8.178419246815894743e-39 2.000000000000000000e+00 6.000000000000000000e+00
9.067793488502502441e-01 -1.603821814060211182e-01 1.694602668285369873e-01 8.086223616952572054e-39 2.000000000000000000e+00 6.000000000000000000e+00
9.064442515373229980e-01 -1.615573614835739136e-01 1.694629639387130737e-01 8.361724500232688389e-39 2.000000000000000000e+00 6.000000000000000000e+00
9.061091542243957520e-01 -1.627325415611267090e-01 1.694656610488891602e-01 8.361724500232688389e-39 2.000000000000000000e+00 6.000000000000000000e+00
9.063530564308166504e-01 -1.640276014804840088e-01 1.686507463455200195e-01 8.637945650923467681e-39 2.000000000000000000e+00 6.000000000000000000e+00
9.065959453582763672e-01 -1.653258353471755981e-01 1.678358763456344604e-01 9.006728170376758439e-39 2.000000000000000000e+00 6.000000000000000000e+00
9.062599539756774902e-01 -1.665041893720626831e-01 1.678385883569717407e-01 9.005649170559228330e-39 2.000000000000000000e+00 6.000000000000000000e+00
9.059239625930786133e-01 -1.676825582981109619e-01 1.678412854671478271e-01 9.190040430285873709e-39 2.000000000000000000e+00 6.000000000000000000e+00
9.055879712104797363e-01 -1.688609272241592407e-01 1.678439825773239136e-01 9.190040430285873709e-39 2.000000000000000000e+00 6.000000000000000000e+00
9.052519798278808594e-01 -1.700392812490463257e-01 1.678466945886611938e-01 9.005649170559228330e-39 2.000000000000000000e+00 6.000000000000000000e+00
9.054921865463256836e-01 -1.713470667600631714e-01 1.670318543910980225e-01 9.096762998008092260e-39 2.000000000000000000e+00 6.000000000000000000e+00
9.051557183265686035e-01 -1.725270301103591919e-01 1.670345515012741089e-01 9.004567368144769571e-39 2.000000000000000000e+00 6.000000000000000000e+00
9.048193097114562988e-01 -1.737069785594940186e-01 1.670372635126113892e-01 9.188954423976021975e-39 2.000000000000000000e+00 6.000000000000000000e+00
9.044828414916992188e-01 -1.748869419097900391e-01 1.670399606227874756e-01 9.188954423976021975e-39 2.000000000000000000e+00 6.000000000000000000e+00
9.041463732719421387e-01 -1.760668903589248657e-01 1.670426726341247559e-01 9.188954423976021975e-39 2.000000000000000000e+00 6.000000000000000000e+00
9.038099646568298340e-01 -1.772468537092208862e-01 1.670453846454620361e-01 9.188954423976021975e-39 2.000000000000000000e+00 6.000000000000000000e+00
9.034734964370727539e-01 -1.784268021583557129e-01 1.670480817556381226e-01 9.281150053839344665e-39 2.000000000000000000e+00 6.000000000000000000e+00
9.025639891624450684e-01 -1.794661879539489746e-01 1.678683161735534668e-01 9.281150053839344665e-39 2.000000000000000000e+00 6.000000000000000000e+00
9.022279977798461914e-01 -1.806445568799972534e-01 1.678710132837295532e-01 9.741046400741499354e-39 2.000000000000000000e+00 6.000000000000000000e+00
9.018920063972473145e-01 -1.818229109048843384e-01 1.678737103939056396e-01 9.833242030604822044e-39 2.000000000000000000e+00 6.000000000000000000e+00
9.015560150146484375e-01 -1.830012798309326172e-01 1.678764224052429199e-01 9.741046400741499354e-39 2.000000000000000000e+00 6.000000000000000000e+00
9.012200236320495605e-01 -1.841796487569808960e-01 1.678791195154190063e-01 9.648850770878176664e-39 2.000000000000000000e+00 6.000000000000000000e+00
9.003133177757263184e-01 -1.852094829082489014e-01 1.686993241310119629e-01 9.372619811098147099e-39 2.000000000000000000e+00 6.000000000000000000e+00
8.999777436256408691e-01 -1.863862425088882446e-01 1.687020212411880493e-01 9.464815440961469789e-39 2.000000000000000000e+00 6.000000000000000000e+00
8.996422290802001953e-01 -1.875630170106887817e-01 1.687047183513641357e-01 9.648850770878176664e-39 2.000000000000000000e+00 6.000000000000000000e+00
8.987372517585754395e-01 -1.885864734649658203e-01 1.695249527692794800e-01 9.648850770878176664e-39 2.000000000000000000e+00 6.000000000000000000e+00
8.984021544456481934e-01 -1.897616535425186157e-01 1.695276498794555664e-01 9.557734140832384084e-39 2.000000000000000000e+00 6.000000000000000000e+00
8.980670571327209473e-01 -1.909368336200714111e-01 1.695303469896316528e-01 9.742125400559029463e-39 2.000000000000000000e+00 6.000000000000000000e+00
8.971639275550842285e-01 -1.919539272785186768e-01 1.703505218029022217e-01 1.029565931344429708e-38 2.000000000000000000e+00 6.000000000000000000e+00
8.968293070793151855e-01 -1.931275129318237305e-01 1.703532189130783081e-01 1.075663746276091053e-38 2.000000000000000000e+00 6.000000000000000000e+00
8.964946866035461426e-01 -1.943010985851287842e-01 1.703559011220932007e-01 1.048256450261594118e-38 2.000000000000000000e+00 6.000000000000000000e+00
8.961600661277770996e-01 -1.954746842384338379e-01 1.703585982322692871e-01 1.002158635329932773e-38 2.000000000000000000e+00 6.000000000000000000e+00
8.958254456520080566e-01 -1.966482698917388916e-01 1.703612953424453735e-01 9.376214141659140255e-39 2.000000000000000000e+00 6.000000000000000000e+00
8.949250578880310059e-01 -1.976558119058609009e-01 1.711814403533935547e-01 9.007431622205849497e-39 2.000000000000000000e+00 6.000000000000000000e+00
8.945908546447753906e-01 -1.988278031349182129e-01 1.711841225624084473e-01 9.190746684711893416e-39 2.000000000000000000e+00 6.000000000000000000e+00
8.942566514015197754e-01 -1.999997943639755249e-01 1.711868196725845337e-01 8.821964165258602658e-39 2.000000000000000000e+00 6.000000000000000000e+00
8.933581113815307617e-01 -2.010009586811065674e-01 1.720069497823715210e-01 8.636133772009095692e-39 2.000000000000000000e+00 6.000000000000000000e+00
8.930243849754333496e-01 -2.021713703870773315e-01 1.720096319913864136e-01 8.820525031735741071e-39 2.000000000000000000e+00 6.000000000000000000e+00
8.915636539459228516e-01 -2.029937356710433960e-01 1.736472547054290771e-01 9.003837291644856341e-39 2.000000000000000000e+00 6.000000000000000000e+00
8.906677961349487305e-01 -2.039853483438491821e-01 1.744673699140548706e-01 9.188228551371501720e-39 2.000000000000000000e+00 6.000000000000000000e+00
8.903354406356811523e-01 -2.051509767770767212e-01 1.744700372219085693e-01 9.374784817225528942e-39 2.000000000000000000e+00 6.000000000000000000e+00
8.894409537315368652e-01 -2.061378210783004761e-01 1.752901375293731689e-01 1.002015422626878777e-38 2.000000000000000000e+00 6.000000000000000000e+00
8.885473608970642090e-01 -2.071214765310287476e-01 1.761102378368377686e-01 1.066948930996608583e-38 2.000000000000000000e+00 6.000000000000000000e+00
8.882158994674682617e-01 -2.082839161157608032e-01 1.761129051446914673e-01 1.140705434887266734e-38 2.000000000000000000e+00 6.000000000000000000e+00
8.873236775398254395e-01 -2.092627733945846558e-01 1.769330352544784546e-01 1.178087593760367014e-38 2.000000000000000000e+00 6.000000000000000000e+00
8.869926333427429199e-01 -2.104236185550689697e-01 1.769357025623321533e-01 1.261063660637357435e-38 2.000000000000000000e+00 6.000000000000000000e+00
8.855419158935546875e-01 -2.112109661102294922e-01 1.785731911659240723e-01 1.205926069312336695e-38 2.000000000000000000e+00 6.000000000000000000e+00
8.840930461883544922e-01 -2.119919508695602417e-01 1.802106648683547974e-01 1.122950002435346275e-38 2.000000000000000000e+00 6.000000000000000000e+00
8.837638497352600098e-01 -2.131464332342147827e-01 1.802133172750473022e-01 1.113442752874288121e-38 2.000000000000000000e+00 6.000000000000000000e+00
8.823176622390747070e-01 -2.139178514480590820e-01 1.818508058786392212e-01 1.076564500928959045e-38 2.000000000000000000e+00 6.000000000000000000e+00
8.819893598556518555e-01 -2.150691449642181396e-01 1.818534433841705322e-01 1.030214872663258531e-38 2.000000000000000000e+00 6.000000000000000000e+00
8.811035156250000000e-01 -2.160257250070571899e-01 1.826734840869903564e-01 1.085532250581252144e-38 2.000000000000000000e+00 6.000000000000000000e+00
8.796614408493041992e-01 -2.167828232049942017e-01 1.843108981847763062e-01 9.096758794112699286e-39 2.000000000000000000e+00 6.000000000000000000e+00
8.793345093727111816e-01 -2.179293334484100342e-01 1.843135356903076172e-01 8.912367534386053907e-39 2.000000000000000000e+00 6.000000000000000000e+00
8.778951168060302734e-01 -2.186768651008605957e-01 1.859509795904159546e-01 8.910566865859396517e-39 2.000000000000000000e+00 6.000000000000000000e+00
8.770133256912231445e-01 -2.196191251277923584e-01 1.867709755897521973e-01 8.910566865859396517e-39 2.000000000000000000e+00 6.000000000000000000e+00
8.766878247261047363e-01 -2.207608520984649658e-01 1.867735981941223145e-01 9.278626315305095669e-39 2.000000000000000000e+00 6.000000000000000000e+00
8.752524852752685547e-01 -2.214940637350082397e-01 1.884110122919082642e-01 9.370821945168418359e-39 2.000000000000000000e+00 6.000000000000000000e+00
8.749278187751770020e-01 -2.226326167583465576e-01 1.884136199951171875e-01 9.094235055578450290e-39 2.000000000000000000e+00 6.000000000000000000e+00
8.734952807426452637e-01 -2.233562618494033813e-01 1.900509595870971680e-01 9.278626315305095669e-39 2.000000000000000000e+00 6.000000000000000000e+00
8.709575533866882324e-01 -2.236554622650146484e-01 1.933230608701705933e-01 9.094235055578450290e-39 2.000000000000000000e+00 6.000000000000000000e+00
8.706356287002563477e-01 -2.247844636440277100e-01 1.933256387710571289e-01 9.094235055578450290e-39 2.000000000000000000e+00 6.000000000000000000e+00
8.697611093521118164e-01 -2.257012277841567993e-01 1.941455900669097900e-01 9.094235055578450290e-39 2.000000000000000000e+00 6.000000000000000000e+00
8.694396615028381348e-01 -2.268286347389221191e-01 1.941481679677963257e-01 9.094235055578450290e-39 2.000000000000000000e+00 6.000000000000000000e+00
8.669114112854003906e-01 -2.270943969488143921e-01 1.974201947450637817e-01 9.278626315305095669e-39 2.000000000000000000e+00 6.000000000000000000e+00
8.654893040657043457e-01 -2.277814298868179321e-01 1.990574449300765991e-01 9.370821945168418359e-39 2.000000000000000000e+00 6.000000000000000000e+00
8.651705384254455566e-01 -2.288992851972579956e-01 1.990600079298019409e-01 9.370821945168418359e-39 2.000000000000000000e+00 6.000000000000000000e+00
8.637511730194091797e-01 -2.295767515897750854e-01 2.006972879171371460e-01 9.463017575031741049e-39 2.000000000000000000e+00 6.000000000000000000e+00
8.623335957527160645e-01 -2.302478551864624023e-01 2.023345082998275757e-01 9.278626315305095669e-39 2.000000000000000000e+00 6.000000000000000000e+00
8.620166778564453125e-01 -2.313593327999114990e-01 2.023370712995529175e-01 9.002039425715127601e-39 2.000000000000000000e+00 6.000000000000000000e+00
8.611508011817932129e-01 -2.322458624839782715e-01 2.031569331884384155e-01 9.002039425715127601e-39 2.000000000000000000e+00 6.000000000000000000e+00
8.608343005180358887e-01 -2.333557456731796265e-01 2.031594812870025635e-01 9.002039425715127601e-39 2.000000000000000000e+00 6.000000000000000000e+00
8.594216704368591309e-01 -2.340093255043029785e-01 2.047967165708541870e-01 9.002039425715127601e-39 2.000000000000000000e+00 6.000000000000000000e+00
8.585585355758666992e-01 -2.348862886428833008e-01 2.056165635585784912e-01 9.002039425715127601e-39 2.000000000000000000e+00 6.000000000000000000e+00
8.582434058189392090e-01 -2.359914034605026245e-01 2.056190967559814453e-01 8.818727165806012331e-39 2.000000000000000000e+00 6.000000000000000000e+00
8.573816418647766113e-01 -2.368635982275009155e-01 2.064389437437057495e-01 8.910922795669335020e-39 2.000000000000000000e+00 6.000000000000000000e+00
8.570669889450073242e-01 -2.379671186208724976e-01 2.064414769411087036e-01 9.004207234439438093e-39 2.000000000000000000e+00 6.000000000000000000e+00
8.572980761528015137e-01 -2.393067479133605957e-01 2.056266963481903076e-01 1.029494605252595575e-38 2.000000000000000000e+00 6.000000000000000000e+00
8.569830060005187988e-01 -2.404118627309799194e-01 2.056292295455932617e-01 9.466630122472770427e-39 2.000000000000000000e+00 6.000000000000000000e+00
8.577576279640197754e-01 -2.419955581426620483e-01 2.039971947669982910e-01 9.005651973156156979e-39 2.000000000000000000e+00 6.000000000000000000e+00
8.574416041374206543e-01 -2.431038618087768555e-01 2.039997279644012451e-01 9.007093909275947216e-39 2.000000000000000000e+00 6.000000000000000000e+00
9.079312682151794434e-01 -1.481399238109588623e-01 1.704849153757095337e-01 7.633186626033287344e-39 2.000000000000000000e+00 6.000000000000000000e+00
9.075970649719238281e-01 -1.493119150400161743e-01 1.704875975847244263e-01 7.633186626033287344e-39 2.000000000000000000e+00 6.000000000000000000e+00
9.072629213333129883e-01 -1.504839062690734863e-01 1.704902946949005127e-01 7.540990996169964655e-39 2.000000000000000000e+00 6.000000000000000000e+00
9.075108170509338379e-01 -1.517594456672668457e-01 1.696745753288269043e-01 7.815414280931015206e-39 2.000000000000000000e+00 6.000000000000000000e+00
9.071761965751647949e-01 -1.529330313205718994e-01 1.696772724390029907e-01 7.538827391341047137e-39 2.000000000000000000e+00 6.000000000000000000e+00
9.068415164947509766e-01 -1.541066169738769531e-01 1.696799695491790771e-01 7.904007172442558791e-39 2.000000000000000000e+00 6.000000000000000000e+00
9.065068960189819336e-01 -1.552802026271820068e-01 1.696826517581939697e-01 7.904007172442558791e-39 2.000000000000000000e+00 6.000000000000000000e+00
9.061722755432128906e-01 -1.564537882804870605e-01 1.696853488683700562e-01 7.995109789503708123e-39 2.000000000000000000e+00 6.000000000000000000e+00
9.058376550674438477e-01 -1.576273739337921143e-01 1.696880459785461426e-01 8.087305419367030813e-39 2.000000000000000000e+00 6.000000000000000000e+00
9.055029749870300293e-01 -1.588009595870971680e-01 1.696907281875610352e-01 8.270610672783824458e-39 2.000000000000000000e+00 6.000000000000000000e+00
9.057472348213195801e-01 -1.600892543792724609e-01 1.688750535249710083e-01 8.178415042920501769e-39 2.000000000000000000e+00 6.000000000000000000e+00
9.054121971130371094e-01 -1.612644195556640625e-01 1.688777506351470947e-01 8.361005634120489758e-39 2.000000000000000000e+00 6.000000000000000000e+00
9.050770998001098633e-01 -1.624395996332168579e-01 1.688804477453231812e-01 8.361005634120489758e-39 2.000000000000000000e+00 6.000000000000000000e+00
9.053195714950561523e-01 -1.637342572212219238e-01 1.680647283792495728e-01 8.729062280969260261e-39 2.000000000000000000e+00 6.000000000000000000e+00
9.055610895156860352e-01 -1.650321036577224731e-01 1.672490835189819336e-01 9.005649170559228330e-39 2.000000000000000000e+00 6.000000000000000000e+00
9.052250981330871582e-01 -1.662104576826095581e-01 1.672517806291580200e-01 9.096765800605020910e-39 2.000000000000000000e+00 6.000000000000000000e+00
9.048891067504882812e-01 -1.673888266086578369e-01 1.672544777393341064e-01 9.096765800605020910e-39 2.000000000000000000e+00 6.000000000000000000e+00
9.045531153678894043e-01 -1.685671806335449219e-01 1.672571897506713867e-01 9.096765800605020910e-39 2.000000000000000000e+00 6.000000000000000000e+00
9.042171239852905273e-01 -1.697455495595932007e-01 1.672598868608474731e-01 9.096765800605020910e-39 2.000000000000000000e+00 6.000000000000000000e+00
9.038811326026916504e-01 -1.709239184856414795e-01 1.672625839710235596e-01 9.096402864302760782e-39 2.000000000000000000e+00 6.000000000000000000e+00
9.035451412200927734e-01 -1.721022725105285645e-01 1.672652959823608398e-01 9.004207234439438093e-39 2.000000000000000000e+00 6.000000000000000000e+00
9.032091498374938965e-01 -1.732806414365768433e-01 1.672679930925369263e-01 9.096758794112699286e-39 2.000000000000000000e+00 6.000000000000000000e+00
9.028731584548950195e-01 -1.744590103626251221e-01 1.672707051038742065e-01 9.096758794112699286e-39 2.000000000000000000e+00 6.000000000000000000e+00
9.025371074676513672e-01 -1.756373643875122070e-01 1.672734022140502930e-01 9.096758794112699286e-39 2.000000000000000000e+00 6.000000000000000000e+00
9.022011160850524902e-01 -1.768157333135604858e-01 1.672760993242263794e-01 9.188954423976021975e-39 2.000000000000000000e+00 6.000000000000000000e+00
9.024372100830078125e-01 -1.781326681375503540e-01 1.664604991674423218e-01 9.188954423976021975e-39 2.000000000000000000e+00 6.000000000000000000e+00
9.015291333198547363e-01 -1.791724562644958496e-01 1.672815084457397461e-01 9.188954423976021975e-39 2.000000000000000000e+00 6.000000000000000000e+00
9.011931419372558594e-01 -1.803508251905441284e-01 1.672842055559158325e-01 9.464459511151531285e-39 2.000000000000000000e+00 6.000000000000000000e+00
9.008571505546569824e-01 -1.815291792154312134e-01 1.672869175672531128e-01 9.464459511151531285e-39 2.000000000000000000e+00 6.000000000000000000e+00
9.005211591720581055e-01 -1.827075481414794922e-01 1.672896146774291992e-01 9.372263881288208596e-39 2.000000000000000000e+00 6.000000000000000000e+00
9.001851677894592285e-01 -1.838859170675277710e-01 1.672923266887664795e-01 9.372263881288208596e-39 2.000000000000000000e+00 6.000000000000000000e+00
8.992798328399658203e-01 -1.849161386489868164e-01 1.681133210659027100e-01 9.280424181234824410e-39 2.000000000000000000e+00 6.000000000000000000e+00
8.989442586898803711e-01 -1.860929131507873535e-01 1.681160181760787964e-01 9.280424181234824410e-39 2.000000000000000000e+00 6.000000000000000000e+00
8.986087441444396973e-01 -1.872696876525878906e-01 1.681187152862548828e-01 9.280424181234824410e-39 2.000000000000000000e+00 6.000000000000000000e+00
8.977051973342895508e-01 -1.882935315370559692e-01 1.689397394657135010e-01 9.280424181234824410e-39 2.000000000000000000e+00 6.000000000000000000e+00
8.973701000213623047e-01 -1.894687116146087646e-01 1.689424365758895874e-01 9.372619811098147099e-39 2.000000000000000000e+00 6.000000000000000000e+00
8.964679241180419922e-01 -1.904877871274948120e-01 1.697634011507034302e-01 9.649206700688115168e-39 2.000000000000000000e+00 6.000000000000000000e+00
8.961333036422729492e-01 -1.916613727807998657e-01 1.697660982608795166e-01 9.649929770695706774e-39 2.000000000000000000e+00 6.000000000000000000e+00
8.957986235618591309e-01 -1.928349584341049194e-01 1.697687953710556030e-01 9.834321030422352153e-39 2.000000000000000000e+00 6.000000000000000000e+00
8.954640030860900879e-01 -1.940085589885711670e-01 1.697714775800704956e-01 1.011126805371765170e-38 2.000000000000000000e+00 6.000000000000000000e+00
8.951293826103210449e-01 -1.951821446418762207e-01 1.697741746902465820e-01 1.029565931344429708e-38 2.000000000000000000e+00 6.000000000000000000e+00
8.947947621345520020e-01 -1.963557302951812744e-01 1.697768718004226685e-01 1.020489861320844300e-38 2.000000000000000000e+00 6.000000000000000000e+00
8.938957452774047852e-01 -1.973636597394943237e-01 1.705978065729141235e-01 1.029709424307176569e-38 2.000000000000000000e+00 6.000000000000000000e+00
8.935616016387939453e-01 -1.985356509685516357e-01 1.706005036830902100e-01 1.002158635329932773e-38 2.000000000000000000e+00 6.000000000000000000e+00
8.932273983955383301e-01 -1.997076421976089478e-01 1.706031858921051025e-01 9.007434424802778147e-39 2.000000000000000000e+00 6.000000000000000000e+00
8.923302292823791504e-01 -2.007092088460922241e-01 1.714241206645965576e-01 8.545377275668634590e-39 2.000000000000000000e+00 6.000000000000000000e+00
8.919965028762817383e-01 -2.018796205520629883e-01 1.714268028736114502e-01 8.545377275668634590e-39 2.000000000000000000e+00 6.000000000000000000e+00
8.911007046699523926e-01 -2.028764039278030396e-01 1.722477227449417114e-01 8.820525031735741071e-39 2.000000000000000000e+00 6.000000000000000000e+00
8.902057409286499023e-01 -2.038699984550476074e-01 1.730686873197555542e-01 8.912720661599063761e-39 2.000000000000000000e+00 6.000000000000000000e+00
8.898729085922241211e-01 -2.050372213125228882e-01 1.730713546276092529e-01 9.190393557498883563e-39 2.000000000000000000e+00 6.000000000000000000e+00
8.889793753623962402e-01 -2.060260474681854248e-01 1.738922595977783203e-01 9.559176076952174321e-39 2.000000000000000000e+00 6.000000000000000000e+00
8.880867362022399902e-01 -2.070116847753524780e-01 1.747131496667861938e-01 1.039362549038370936e-38 2.000000000000000000e+00 6.000000000000000000e+00
8.877548575401306152e-01 -2.081757187843322754e-01 1.747158169746398926e-01 1.113119052929029088e-38 2.000000000000000000e+00 6.000000000000000000e+00
8.868635892868041992e-01 -2.091565877199172974e-01 1.755367070436477661e-01 1.233476858289580491e-38 2.000000000000000000e+00 6.000000000000000000e+00
8.865321278572082520e-01 -2.103190273046493530e-01 1.755393743515014648e-01 1.270355110234909567e-38 2.000000000000000000e+00 6.000000000000000000e+00
8.850837349891662598e-01 -2.111087441444396973e-01 1.771784871816635132e-01 1.215145632298668964e-38 2.000000000000000000e+00 6.000000000000000000e+00
8.836371302604675293e-01 -2.118921130895614624e-01 1.788175553083419800e-01 1.132169565421678544e-38 2.000000000000000000e+00 6.000000000000000000e+00
8.833075165748596191e-01 -2.130481898784637451e-01 1.788202077150344849e-01 1.113550933115733997e-38 2.000000000000000000e+00 6.000000000000000000e+00
8.818636536598205566e-01 -2.138219922780990601e-01 1.804592907428741455e-01 1.058233555197740383e-38 2.000000000000000000e+00 6.000000000000000000e+00
8.815349340438842773e-01 -2.149748802185058594e-01 1.804619431495666504e-01 1.094751813567584413e-38 2.000000000000000000e+00 6.000000000000000000e+00
8.806499838829040527e-01 -2.159334570169448853e-01 1.812827736139297485e-01 1.150069191485578027e-38 2.000000000000000000e+00 6.000000000000000000e+00
8.792102932929992676e-01 -2.166929394006729126e-01 1.829217821359634399e-01 9.097118927818030764e-39 2.000000000000000000e+00 6.000000000000000000e+00
8.788828849792480469e-01 -2.178410440683364868e-01 1.829244047403335571e-01 8.820532038228062695e-39 2.000000000000000000e+00 6.000000000000000000e+00
8.768910169601440430e-01 -2.183918654918670654e-01 1.853816211223602295e-01 8.910566865859396517e-39 2.000000000000000000e+00 6.000000000000000000e+00
8.760106563568115234e-01 -2.193345129489898682e-01 1.862024068832397461e-01 9.094958125586041896e-39 2.000000000000000000e+00 6.000000000000000000e+00
8.756850957870483398e-01 -2.204762548208236694e-01 1.862050294876098633e-01 9.278626315305095669e-39 2.000000000000000000e+00 6.000000000000000000e+00
8.742525577545166016e-01 -2.212102413177490234e-01 1.878440231084823608e-01 9.278626315305095669e-39 2.000000000000000000e+00 6.000000000000000000e+00
8.739279508590698242e-01 -2.223487943410873413e-01 1.878466457128524780e-01 9.094235055578450290e-39 2.000000000000000000e+00 6.000000000000000000e+00
8.724982142448425293e-01 -2.230732589960098267e-01 1.894855648279190063e-01 9.278626315305095669e-39 2.000000000000000000e+00 6.000000000000000000e+00
8.699660301208496094e-01 -2.233740389347076416e-01 1.927608400583267212e-01 9.094235055578450290e-39 2.000000000000000000e+00 6.000000000000000000e+00
8.696441054344177246e-01 -2.245030254125595093e-01 1.927634179592132568e-01 9.094235055578450290e-39 2.000000000000000000e+00 6.000000000000000000e+00
8.687709569931030273e-01 -2.254202067852020264e-01 1.935841590166091919e-01 9.094235055578450290e-39 2.000000000000000000e+00 6.000000000000000000e+00
8.684495091438293457e-01 -2.265476137399673462e-01 1.935867518186569214e-01 9.094235055578450290e-39 2.000000000000000000e+00 6.000000000000000000e+00
8.659268617630004883e-01 -2.268149554729461670e-01 1.968619376420974731e-01 9.461938575214210939e-39 2.000000000000000000e+00 6.000000000000000000e+00
8.645075559616088867e-01 -2.275027781724929810e-01 1.985007822513580322e-01 9.646329834940856318e-39 2.000000000000000000e+00 6.000000000000000000e+00
8.641888499259948730e-01 -2.286206334829330444e-01 1.985033452510833740e-01 9.646329834940856318e-39 2.000000000000000000e+00 6.000000000000000000e+00
8.627722263336181641e-01 -2.292988896369934082e-01 2.001422196626663208e-01 9.646329834940856318e-39 2.000000000000000000e+00 6.000000000000000000e+00
8.613574504852294922e-01 -2.299707978963851929e-01 2.017810195684432983e-01 9.278626315305095669e-39 2.000000000000000000e+00 6.000000000000000000e+00
8.610405325889587402e-01 -2.310822755098342896e-01 2.017835676670074463e-01 9.002039425715127601e-39 2.000000000000000000e+00 6.000000000000000000e+00
8.596284389495849609e-01 -2.317446023225784302e-01 2.034223973751068115e-01 9.002039425715127601e-39 2.000000000000000000e+00 6.000000000000000000e+00
8.593124151229858398e-01 -2.328529059886932373e-01 2.034249454736709595e-01 9.002039425715127601e-39 2.000000000000000000e+00 6.000000000000000000e+00
8.584497570991516113e-01 -2.337334603071212769e-01 2.042455971240997314e-01 9.002039425715127601e-39 2.000000000000000000e+00 6.000000000000000000e+00
8.570417761802673340e-01 -2.343814671039581299e-01 2.058843523263931274e-01 9.002039425715127601e-39 2.000000000000000000e+00 6.000000000000000000e+00
8.567271232604980469e-01 -2.354849874973297119e-01 2.058868706226348877e-01 8.818727165806012331e-39 2.000000000000000000e+00 6.000000000000000000e+00
8.558671474456787109e-01 -2.363559752702713013e-01 2.067075520753860474e-01 8.910922795669335020e-39 2.000000000000000000e+00 6.000000000000000000e+00
8.555529713630676270e-01 -2.374579012393951416e-01 2.067100852727890015e-01 9.095679794295169177e-39 2.000000000000000000e+00 6.000000000000000000e+00
8.552387952804565430e-01 -2.385598272085189819e-01 2.067126035690307617e-01 9.833244833201750693e-39 2.000000000000000000e+00 6.000000000000000000e+00
8.549245595932006836e-01 -2.396617531776428223e-01 2.067151367664337158e-01 9.374431690012519088e-39 2.000000000000000000e+00 6.000000000000000000e+00
8.562408089637756348e-01 -2.414803951978683472e-01 2.042633593082427979e-01 9.005649170559228330e-39 2.000000000000000000e+00 6.000000000000000000e+00
8.559252619743347168e-01 -2.425871044397354126e-01 2.042659074068069458e-01 9.006730972973687088e-39 2.000000000000000000e+00 6.000000000000000000e+00
8.572373986244201660e-01 -2.444200664758682251e-01 2.018141597509384155e-01 9.191122232700332467e-39 2.000000000000000000e+00 6.000000000000000000e+00
9.056525230407714844e-01 -1.500902026891708374e-01 1.707258522510528564e-01 7.265127176587588192e-39 2.000000000000000000e+00 6.000000000000000000e+00
9.058994650840759277e-01 -1.513637602329254150e-01 1.699093431234359741e-01 7.631023021204369827e-39 2.000000000000000000e+00 6.000000000000000000e+00
9.055652618408203125e-01 -1.525357514619827271e-01 1.699120402336120605e-01 7.354436131614401758e-39 2.000000000000000000e+00 6.000000000000000000e+00
9.058108925819396973e-01 -1.538140773773193359e-01 1.690955460071563721e-01 7.904361700954032969e-39 2.000000000000000000e+00 6.000000000000000000e+00
9.054762125015258789e-01 -1.549876630306243896e-01 1.690982282161712646e-01 7.812166071090710280e-39 2.000000000000000000e+00 6.000000000000000000e+00
9.051415920257568359e-01 -1.561612486839294434e-01 1.691009253263473511e-01 7.995109789503708123e-39 2.000000000000000000e+00 6.000000000000000000e+00
9.048069715499877930e-01 -1.573348343372344971e-01 1.691036224365234375e-01 7.995109789503708123e-39 2.000000000000000000e+00 6.000000000000000000e+00
9.044723510742187500e-01 -1.585084199905395508e-01 1.691063046455383301e-01 8.270610672783824458e-39 2.000000000000000000e+00 6.000000000000000000e+00
9.041376709938049316e-01 -1.596820056438446045e-01 1.691090017557144165e-01 8.086219413057179079e-39 2.000000000000000000e+00 6.000000000000000000e+00
9.043800830841064453e-01 -1.609714925289154053e-01 1.682925373315811157e-01 8.361361563930428262e-39 2.000000000000000000e+00 6.000000000000000000e+00
9.040449857711791992e-01 -1.621466577053070068e-01 1.682952344417572021e-01 8.361361563930428262e-39 2.000000000000000000e+00 6.000000000000000000e+00
9.042860865592956543e-01 -1.634409278631210327e-01 1.674787253141403198e-01 8.912374540878375531e-39 2.000000000000000000e+00 6.000000000000000000e+00
9.045262336730957031e-01 -1.647383570671081543e-01 1.666622757911682129e-01 9.096765800605020910e-39 2.000000000000000000e+00 6.000000000000000000e+00
