8.253949284553527832e-01 -1.933873444795608521e-01 1.751098483800888062e-01
8.245820403099060059e-01 -1.943319290876388550e-01 1.759662777185440063e-01
8.227807283401489258e-01 -1.949299722909927368e-01 1.785305291414260864e-01
8.224647045135498047e-01 -1.960382759571075439e-01 1.785330772399902344e-01
8.211612701416015625e-01 -1.967968642711639404e-01 1.802433580160140991e-01
8.193663954734802246e-01 -1.973726153373718262e-01 1.828075498342514038e-01
8.190526366233825684e-01 -1.984729468822479248e-01 1.828100830316543579e-01
8.172618746757507324e-01 -1.990343779325485229e-01 1.853741854429244995e-01
8.169494867324829102e-01 -2.001299411058425903e-01 1.853767037391662598e-01
8.151627182960510254e-01 -2.006770223379135132e-01 1.879408359527587891e-01
8.143607378005981445e-01 -2.015834003686904907e-01 1.887971907854080200e-01
8.140501379966735840e-01 -2.026725858449935913e-01 1.887996941804885864e-01
8.132495284080505371e-01 -2.035741806030273438e-01 1.896560341119766235e-01
8.129394054412841797e-01 -2.046617716550827026e-01 1.896585226058959961e-01
8.126292824745178223e-01 -2.057493776082992554e-01 1.896610260009765625e-01
8.123191595077514648e-01 -2.068369686603546143e-01 1.896635144948959351e-01
8.124973177909851074e-01 -2.081185281276702881e-01 1.888121813535690308e-01
8.121867179870605469e-01 -2.092077285051345825e-01 1.888146698474884033e-01
8.123635053634643555e-01 -2.104940712451934814e-01 1.879633516073226929e-01
8.130263090133666992e-01 -2.119823396205902100e-01 1.862582117319107056e-01
8.127143979072570801e-01 -2.130762934684753418e-01 1.862607300281524658e-01
8.133744597434997559e-01 -2.145741432905197144e-01 1.845555603504180908e-01
8.150038123130798340e-01 -2.164853811264038086e-01 1.811427921056747437e-01
8.146891593933105469e-01 -2.175889015197753906e-01 1.811453253030776978e-01
8.418706059455871582e-01 -1.471031457185745239e-01 1.676086038351058960e-01
8.415491580963134766e-01 -1.482305526733398438e-01 1.676111966371536255e-01
8.412277102470397949e-01 -1.493579596281051636e-01 1.676137745380401611e-01
8.409062027931213379e-01 -1.504853665828704834e-01 1.676163673400878906e-01
8.405847549438476562e-01 -1.516127735376358032e-01 1.676189452409744263e-01
8.402633070945739746e-01 -1.527401804924011230e-01 1.676215380430221558e-01
8.399418592453002930e-01 -1.538675874471664429e-01 1.676241159439086914e-01
8.396203517913818359e-01 -1.549949944019317627e-01 1.676267087459564209e-01
8.392989039421081543e-01 -1.561224013566970825e-01 1.676292866468429565e-01
8.389774560928344727e-01 -1.572498083114624023e-01 1.676318794488906860e-01
8.386559486389160156e-01 -1.583772152662277222e-01 1.676344573497772217e-01
8.383345007896423340e-01 -1.595046222209930420e-01 1.676370501518249512e-01
8.380130529403686523e-01 -1.606320291757583618e-01 1.676396280527114868e-01
8.376916050910949707e-01 -1.617594361305236816e-01 1.676422208547592163e-01
8.373700976371765137e-01 -1.628868430852890015e-01 1.676447987556457520e-01
8.370486497879028320e-01 -1.640142500400543213e-01 1.676473915576934814e-01
8.367272019386291504e-01 -1.651416569948196411e-01 1.676499694585800171e-01
8.364056944847106934e-01 -1.662690639495849609e-01 1.676525622606277466e-01
8.360842466354370117e-01 -1.673964709043502808e-01 1.676551550626754761e-01
8.357627987861633301e-01 -1.685238778591156006e-01 1.676577329635620117e-01
8.354412913322448730e-01 -1.696512848138809204e-01 1.676603257656097412e-01
8.351198434829711914e-01 -1.707786917686462402e-01 1.676629036664962769e-01
8.347983956336975098e-01 -1.719060987234115601e-01 1.676654964685440063e-01
8.344769477844238281e-01 -1.730335056781768799e-01 1.676680743694305420e-01
8.341554403305053711e-01 -1.741609126329421997e-01 1.676706671714782715e-01
8.333321213722229004e-01 -1.751473098993301392e-01 1.685279905796051025e-01
8.330111503601074219e-01 -1.762731224298477173e-01 1.685305684804916382e-01
8.326901197433471680e-01 -1.773989349603652954e-01 1.685331612825393677e-01
8.323690891265869141e-01 -1.785247474908828735e-01 1.685357391834259033e-01
8.320481181144714355e-01 -1.796505600214004517e-01 1.685383170843124390e-01
8.317270874977111816e-01 -1.807763725519180298e-01 1.685409098863601685e-01
8.309069275856018066e-01 -1.817516088485717773e-01 1.693982630968093872e-01
8.305863738059997559e-01 -1.828758269548416138e-01 1.694008409976959229e-01
8.297675848007202148e-01 -1.838462948799133301e-01 1.702581346035003662e-01
8.294475078582763672e-01 -1.849689185619354248e-01 1.702606976032257080e-01
8.286300897598266602e-01 -1.859346032142639160e-01 1.711179912090301514e-01
8.278135657310485840e-01 -1.868970990180969238e-01 1.719752550125122070e-01
8.274943828582763672e-01 -1.880165487527847290e-01 1.719778329133987427e-01
8.261832594871520996e-01 -1.888125389814376831e-01 1.736898422241210938e-01
8.248739838600158691e-01 -1.896021664142608643e-01 1.754017770290374756e-01
8.245566487312316895e-01 -1.907152533531188965e-01 1.754043400287628174e-01
8.232500553131103516e-01 -1.914953291416168213e-01 1.771162599325180054e-01
8.229336142539978027e-01 -1.926052123308181763e-01 1.771188080310821533e-01
8.216297626495361328e-01 -1.933757215738296509e-01 1.788307577371597290e-01
8.208209872245788574e-01 -1.943111568689346313e-01 1.796879619359970093e-01
8.205058574676513672e-01 -1.954162716865539551e-01 1.796904951333999634e-01
8.192061185836791992e-01 -1.961724460124969482e-01 1.814024150371551514e-01
8.184000253677368164e-01 -1.970983296632766724e-01 1.822596192359924316e-01
8.166120648384094238e-01 -1.976657211780548096e-01 1.848261207342147827e-01
8.148268461227416992e-01 -1.982235610485076904e-01 1.873926520347595215e-01
8.145157694816589355e-01 -1.993143409490585327e-01 1.873951405286788940e-01
8.137147426605224609e-01 -2.002227008342742920e-01 1.882523000240325928e-01
8.129145503044128418e-01 -2.011278718709945679e-01 1.891094446182250977e-01
8.126044869422912598e-01 -2.022154629230499268e-01 1.891119331121444702e-01
8.118056654930114746e-01 -2.031158506870269775e-01 1.899691224098205566e-01
8.114959597587585449e-01 -2.042018622159957886e-01 1.899716109037399292e-01
8.111863136291503906e-01 -2.052878737449645996e-01 1.899740993976593018e-01
8.108766674995422363e-01 -2.063738703727722168e-01 1.899765878915786743e-01
8.115407824516296387e-01 -2.078470289707183838e-01 1.882697790861129761e-01
8.112301826477050781e-01 -2.089362144470214844e-01 1.882722824811935425e-01
8.114055991172790527e-01 -2.102221548557281494e-01 1.874201595783233643e-01
8.120655417442321777e-01 -2.117096334695816040e-01 1.857134401798248291e-01
8.117536306381225586e-01 -2.128036022186279297e-01 1.857159584760665894e-01
8.124108910560607910e-01 -2.143006473779678345e-01 1.840091943740844727e-01
8.408805131912231445e-01 -1.468221098184585571e-01 1.670471727848052979e-01
8.405590653419494629e-01 -1.479495316743850708e-01 1.670497655868530273e-01
8.402375578880310059e-01 -1.490769386291503906e-01 1.670523434877395630e-01
8.399161100387573242e-01 -1.502043455839157104e-01 1.670549362897872925e-01
8.395946621894836426e-01 -1.513317525386810303e-01 1.670575141906738281e-01
8.392731547355651855e-01 -1.524591594934463501e-01 1.670601069927215576e-01
8.389517068862915039e-01 -1.535865664482116699e-01 1.670626997947692871e-01
8.386302590370178223e-01 -1.547139734029769897e-01 1.670652776956558228e-01
8.383088111877441406e-01 -1.558413803577423096e-01 1.670678704977035522e-01
8.379873037338256836e-01 -1.569687873125076294e-01 1.670704483985900879e-01
8.376658558845520020e-01 -1.580961942672729492e-01 1.670730412006378174e-01
8.373444080352783203e-01 -1.592236012220382690e-01 1.670756191015243530e-01
8.370229005813598633e-01 -1.603510081768035889e-01 1.670782119035720825e-01
8.367014527320861816e-01 -1.614784151315689087e-01 1.670807898044586182e-01
8.363800048828125000e-01 -1.626058220863342285e-01 1.670833826065063477e-01
8.360585570335388184e-01 -1.637332290410995483e-01 1.670859605073928833e-01
8.357370495796203613e-01 -1.648606359958648682e-01 1.670885533094406128e-01
8.354156017303466797e-01 -1.659880429506301880e-01 1.670911312103271484e-01
8.350941538810729980e-01 -1.671154499053955078e-01 1.670937240123748779e-01
8.347726464271545410e-01 -1.682428568601608276e-01 1.670963019132614136e-01
8.344511985778808594e-01 -1.693702638149261475e-01 1.670988947153091431e-01
8.341297507286071777e-01 -1.704976707696914673e-01 1.671014726161956787e-01
8.338082432746887207e-01 -1.716250777244567871e-01 1.671040654182434082e-01
8.334867954254150391e-01 -1.727524846792221069e-01 1.671066582202911377e-01
8.331653475761413574e-01 -1.738798916339874268e-01 1.671092361211776733e-01
8.323433995246887207e-01 -1.748666763305664062e-01 1.679673641920089722e-01
8.320224285125732422e-01 -1.759924888610839844e-01 1.679699420928955078e-01
8.317013978958129883e-01 -1.771183013916015625e-01 1.679725199937820435e-01
8.313803672790527344e-01 -1.782441139221191406e-01 1.679751127958297729e-01
8.310593962669372559e-01 -1.793699264526367188e-01 1.679776906967163086e-01
8.307383656501770020e-01 -1.804957389831542969e-01 1.679802685976028442e-01
8.299195766448974609e-01 -1.814713627099990845e-01 1.688384115695953369e-01
8.295990228652954102e-01 -1.825955957174301147e-01 1.688409894704818726e-01
8.287816643714904785e-01 -1.835664510726928711e-01 1.696990877389907837e-01
8.284615874290466309e-01 -1.846890747547149658e-01 1.697016507387161255e-01
8.276455402374267578e-01 -1.856551617383956909e-01 1.705597341060638428e-01
8.268304467201232910e-01 -1.866180598735809326e-01 1.714178025722503662e-01
8.265112638473510742e-01 -1.877375096082687378e-01 1.714203655719757080e-01
8.252029418945312500e-01 -1.885342895984649658e-01 1.731339693069458008e-01
8.238964676856994629e-01 -1.893247067928314209e-01 1.748474985361099243e-01
8.235790729522705078e-01 -1.904377937316894531e-01 1.748500466346740723e-01
8.222753405570983887e-01 -1.912186592817306519e-01 1.765635609626770020e-01
8.219588994979858398e-01 -1.923285424709320068e-01 1.765660941600799561e-01
8.206577897071838379e-01 -1.930998563766479492e-01 1.782796382904052734e-01
8.198504447937011719e-01 -1.940356791019439697e-01 1.791376471519470215e-01
8.195353150367736816e-01 -1.951407939195632935e-01 1.791401803493499756e-01
8.182383775711059570e-01 -1.958977729082107544e-01 1.808536797761917114e-01
8.179241418838500977e-01 -1.969996988773345947e-01 1.808562129735946655e-01
8.156499266624450684e-01 -1.973926275968551636e-01 1.842805445194244385e-01
8.138688802719116211e-01 -1.979516595602035522e-01 1.868494600057601929e-01
8.135578632354736328e-01 -1.990424394607543945e-01 1.868519634008407593e-01
8.127582073211669922e-01 -1.999511867761611938e-01 1.877098977565765381e-01
8.119594454765319824e-01 -2.008567601442337036e-01 1.885678321123123169e-01
8.116493225097656250e-01 -2.019443660974502563e-01 1.885703355073928833e-01
8.108518719673156738e-01 -2.028451412916183472e-01 1.894283145666122437e-01
8.105422258377075195e-01 -2.039311528205871582e-01 1.894308030605316162e-01
8.102325797080993652e-01 -2.050171494483947754e-01 1.894332915544509888e-01
8.099228739738464355e-01 -2.061031609773635864e-01 1.894357800483703613e-01
8.105841875076293945e-01 -2.075755298137664795e-01 1.877273917198181152e-01
8.102736473083496094e-01 -2.086647152900695801e-01 1.877298802137374878e-01
8.104476332664489746e-01 -2.099502533674240112e-01 1.868769824504852295e-01
8.111048340797424316e-01 -2.114369422197341919e-01 1.851686686277389526e-01
8.107928633689880371e-01 -2.125309109687805176e-01 1.851711720228195190e-01
8.119305372238159180e-01 -2.142282873392105103e-01 1.826074421405792236e-01
8.393799662590026855e-01 -1.464406698942184448e-01 1.673421710729598999e-01
8.395689129829406738e-01 -1.476684957742691040e-01 1.664883345365524292e-01
8.392474651336669922e-01 -1.487959027290344238e-01 1.664909273386001587e-01
8.389260172843933105e-01 -1.499233096837997437e-01 1.664935052394866943e-01
8.386045098304748535e-01 -1.510507166385650635e-01 1.664960980415344238e-01
8.382830619812011719e-01 -1.521781235933303833e-01 1.664986759424209595e-01
8.379616141319274902e-01 -1.533055305480957031e-01 1.665012687444686890e-01
8.376401662826538086e-01 -1.544329375028610229e-01 1.665038466453552246e-01
8.368119001388549805e-01 -1.554471850395202637e-01 1.673628240823745728e-01
8.364908695220947266e-01 -1.565729975700378418e-01 1.673654168844223022e-01
8.361698985099792480e-01 -1.576988101005554199e-01 1.673679947853088379e-01
8.353434205055236816e-01 -1.587066799402236938e-01 1.682270020246505737e-01
8.350228667259216309e-01 -1.598309129476547241e-01 1.682295799255371094e-01
8.347023129463195801e-01 -1.609551310539245605e-01 1.682321727275848389e-01
8.343817591667175293e-01 -1.620793491601943970e-01 1.682347506284713745e-01
8.340612053871154785e-01 -1.632035821676254272e-01 1.682373285293579102e-01
8.337406516075134277e-01 -1.643278002738952637e-01 1.682399064302444458e-01
8.334200978279113770e-01 -1.654520183801651001e-01 1.682424843311309814e-01
8.330995440483093262e-01 -1.665762364864349365e-01 1.682450622320175171e-01
8.327789902687072754e-01 -1.677004694938659668e-01 1.682476401329040527e-01
8.324584364891052246e-01 -1.688246876001358032e-01 1.682502180337905884e-01
8.321378827095031738e-01 -1.699489057064056396e-01 1.682527959346771240e-01
8.318172693252563477e-01 -1.710731387138366699e-01 1.682553738355636597e-01
8.314967155456542969e-01 -1.721973568201065063e-01 1.682579517364501953e-01
8.311761617660522461e-01 -1.733215749263763428e-01 1.682605296373367310e-01
8.303565979003906250e-01 -1.743055731058120728e-01 1.691194325685501099e-01
8.300364613533020020e-01 -1.754281967878341675e-01 1.691220104694366455e-01
8.297163844108581543e-01 -1.765508353710174561e-01 1.691245883703231812e-01
8.293962478637695312e-01 -1.776734590530395508e-01 1.691271662712097168e-01
8.290761709213256836e-01 -1.787960976362228394e-01 1.691297292709350586e-01
8.282592892646789551e-01 -1.797705292701721191e-01 1.699886173009872437e-01
8.274433016777038574e-01 -1.807417869567871094e-01 1.708475053310394287e-01
8.271241188049316406e-01 -1.818612366914749146e-01 1.708500683307647705e-01
8.268049359321594238e-01 -1.829806715250015259e-01 1.708526313304901123e-01
8.264856934547424316e-01 -1.841001212596893311e-01 1.708552092313766479e-01
8.256720304489135742e-01 -1.850634217262268066e-01 1.717140674591064453e-01
8.243651390075683594e-01 -1.858657747507095337e-01 1.734292507171630859e-01
8.240472674369812012e-01 -1.869804412126541138e-01 1.734318137168884277e-01
8.232363462448120117e-01 -1.879341751337051392e-01 1.742906570434570312e-01
8.229189515113830566e-01 -1.890472471714019775e-01 1.742932051420211792e-01
8.211247920989990234e-01 -1.896679848432540894e-01 1.768646389245986938e-01
8.203170299530029297e-01 -1.906105726957321167e-01 1.777234375476837158e-01
8.200014233589172363e-01 -1.917172819375991821e-01 1.777259856462478638e-01
8.182132244110107422e-01 -1.923173069953918457e-01 1.802973598241806030e-01
8.174086213111877441e-01 -1.932487487792968750e-01 1.811561435461044312e-01
8.170948624610900879e-01 -1.943490803241729736e-01 1.811586767435073853e-01
8.153125643730163574e-01 -1.949284225702285767e-01 1.837299615144729614e-01
8.150001764297485352e-01 -1.960239857435226440e-01 1.837324649095535278e-01
8.137105703353881836e-01 -1.967658251523971558e-01 1.854475289583206177e-01
8.119345903396606445e-01 -1.973228603601455688e-01 1.880187541246414185e-01
8.116245269775390625e-01 -1.984104663133621216e-01 1.880212426185607910e-01
8.103398680686950684e-01 -1.991347968578338623e-01 1.897362619638442993e-01
8.100306391716003418e-01 -2.002191990613937378e-01 1.897387504577636719e-01
8.097214698791503906e-01 -2.013036161661148071e-01 1.897412389516830444e-01
8.094122409820556641e-01 -2.023880332708358765e-01 1.897437274456024170e-01
8.091030120849609375e-01 -2.034724354743957520e-01 1.897462159395217896e-01
8.087938427925109863e-01 -2.045568525791168213e-01 1.897487044334411621e-01
8.089691400527954102e-01 -2.058324515819549561e-01 1.888949722051620483e-01
8.096276521682739258e-01 -2.073040157556533813e-01 1.871849894523620605e-01
8.093170523643493652e-01 -2.083932012319564819e-01 1.871874928474426270e-01
8.094896674156188965e-01 -2.096783518791198730e-01 1.863337904214859009e-01
8.101440668106079102e-01 -2.111642509698867798e-01 1.846238970756530762e-01
8.098320960998535156e-01 -2.122582197189331055e-01 1.846264004707336426e-01
8.383913040161132812e-01 -1.461600363254547119e-01 1.667815446853637695e-01
8.385788202285766602e-01 -1.473874598741531372e-01 1.659269183874130249e-01
8.382573723793029785e-01 -1.485148668289184570e-01 1.659294962882995605e-01
8.379358649253845215e-01 -1.496422737836837769e-01 1.659320890903472900e-01
8.376144170761108398e-01 -1.507696807384490967e-01 1.659346669912338257e-01
8.372929692268371582e-01 -1.518970876932144165e-01 1.659372597932815552e-01
8.369714617729187012e-01 -1.530244946479797363e-01 1.659398376941680908e-01
8.366500139236450195e-01 -1.541519016027450562e-01 1.659424304962158203e-01
8.358231782913208008e-01 -1.551665514707565308e-01 1.668021976947784424e-01
8.355021476745605469e-01 -1.562923640012741089e-01 1.668047755956649780e-01
8.351811766624450684e-01 -1.574181765317916870e-01 1.668073683977127075e-01
8.343561291694641113e-01 -1.584264487028121948e-01 1.676671653985977173e-01
8.340355753898620605e-01 -1.595506668090820312e-01 1.676697432994842529e-01
8.337150216102600098e-01 -1.606748998165130615e-01 1.676723212003707886e-01
8.333944678306579590e-01 -1.617991179227828979e-01 1.676748991012573242e-01
8.330738544464111328e-01 -1.629233360290527344e-01 1.676774770021438599e-01
8.312481045722961426e-01 -1.636710613965988159e-01 1.702515333890914917e-01
8.309289216995239258e-01 -1.647905111312866211e-01 1.702540963888168335e-01
8.306097388267517090e-01 -1.659099459648132324e-01 1.702566593885421753e-01
8.302904963493347168e-01 -1.670293956995010376e-01 1.702592223882675171e-01
8.299713134765625000e-01 -1.681488454341888428e-01 1.702618002891540527e-01
8.296521306037902832e-01 -1.692682802677154541e-01 1.702643632888793945e-01
8.293329477310180664e-01 -1.703877300024032593e-01 1.702669262886047363e-01
8.290137648582458496e-01 -1.715071797370910645e-01 1.702695041894912720e-01
8.286945223808288574e-01 -1.726266294717788696e-01 1.702720671892166138e-01
8.283753395080566406e-01 -1.737460643053054810e-01 1.702746301889419556e-01
8.280561566352844238e-01 -1.748655140399932861e-01 1.702772080898284912e-01
8.277369737625122070e-01 -1.759849637746810913e-01 1.702797710895538330e-01
8.269214630126953125e-01 -1.769597977399826050e-01 1.711394488811492920e-01
8.266027569770812988e-01 -1.780776530504226685e-01 1.711420118808746338e-01
8.262839913368225098e-01 -1.791955083608627319e-01 1.711445748805999756e-01
8.259652256965637207e-01 -1.803133487701416016e-01 1.711471378803253174e-01
8.251519799232482910e-01 -1.812802255153656006e-01 1.720068454742431641e-01
8.248336911201477051e-01 -1.823964864015579224e-01 1.720094084739685059e-01
8.245154619216918945e-01 -1.835127472877502441e-01 1.720119714736938477e-01
8.232108950614929199e-01 -1.843174993991851807e-01 1.737287044525146484e-01
8.228935599327087402e-01 -1.854305714368820190e-01 1.737312525510787964e-01
8.225761651992797852e-01 -1.865436434745788574e-01 1.737338155508041382e-01
8.212752938270568848e-01 -1.873356550931930542e-01 1.754505187273025513e-01
8.209587931632995605e-01 -1.884455531835556030e-01 1.754530519247055054e-01
8.196606636047363281e-01 -1.892279982566833496e-01 1.771697849035263062e-01
8.183643221855163574e-01 -1.900040805339813232e-01 1.788864582777023315e-01
8.180496692657470703e-01 -1.911076009273529053e-01 1.788889914751052856e-01
8.172454833984375000e-01 -1.920426189899444580e-01 1.797486245632171631e-01
8.154641985893249512e-01 -1.926342993974685669e-01 1.823223084211349487e-01
8.151513934135437012e-01 -1.937314420938491821e-01 1.823248267173767090e-01
8.143504261970520020e-01 -1.946553289890289307e-01 1.831843852996826172e-01
8.140380382537841797e-01 -1.957508921623229980e-01 1.831869035959243774e-01
8.122639656066894531e-01 -1.963170617818832397e-01 1.857605874538421631e-01
8.104926943778991699e-01 -1.968736946582794189e-01 1.883342415094375610e-01
8.101829886436462402e-01 -1.979597061872482300e-01 1.883367300033569336e-01
8.093875050544738770e-01 -1.988644748926162720e-01 1.891962438821792603e-01
8.090782761573791504e-01 -1.999488919973373413e-01 1.891987323760986328e-01
8.087691068649291992e-01 -2.010332942008972168e-01 1.892012208700180054e-01
8.084598779678344727e-01 -2.021177113056182861e-01 1.892037093639373779e-01
8.081507086753845215e-01 -2.032021284103393555e-01 1.892061978578567505e-01
8.078414797782897949e-01 -2.042865455150604248e-01 1.892086863517761230e-01
8.080154061317443848e-01 -2.055617421865463257e-01 1.883541643619537354e-01
8.086711168289184570e-01 -2.070325165987014771e-01 1.866426020860671997e-01
8.083605170249938965e-01 -2.081217020750045776e-01 1.866451054811477661e-01
8.085317015647888184e-01 -2.094064503908157349e-01 1.857905983924865723e-01
8.096646666526794434e-01 -2.110887169837951660e-01 1.832220852375030518e-01
8.093522787094116211e-01 -2.121842801570892334e-01 1.832245886325836182e-01
8.368949294090270996e-01 -1.457797735929489136e-01 1.670789718627929688e-01
8.365743756294250488e-01 -1.469039916992187500e-01 1.670815497636795044e-01
8.362538218498229980e-01 -1.480282098054885864e-01 1.670841276645660400e-01
8.359332680702209473e-01 -1.491524279117584229e-01 1.670867055654525757e-01
8.356127142906188965e-01 -1.502766609191894531e-01 1.670892834663391113e-01
8.352921605110168457e-01 -1.514008790254592896e-01 1.670918613672256470e-01
8.349716067314147949e-01 -1.525250971317291260e-01 1.670944392681121826e-01
8.346509933471679688e-01 -1.536493301391601562e-01 1.670970171689987183e-01
8.343304395675659180e-01 -1.547735482454299927e-01 1.670995950698852539e-01
8.335064053535461426e-01 -1.557838171720504761e-01 1.679601520299911499e-01
8.331862688064575195e-01 -1.569064408540725708e-01 1.679627150297164917e-01
8.328661918640136719e-01 -1.580290645360946655e-01 1.679652929306030273e-01
8.320439457893371582e-01 -1.590329706668853760e-01 1.688258349895477295e-01
8.317242860794067383e-01 -1.601539999246597290e-01 1.688283979892730713e-01
8.314046263694763184e-01 -1.612750440835952759e-01 1.688309758901596069e-01
8.310849666595458984e-01 -1.623960733413696289e-01 1.688335537910461426e-01
8.302649855613708496e-01 -1.633920222520828247e-01 1.696940660476684570e-01
8.299458026885986328e-01 -1.645114570856094360e-01 1.696966290473937988e-01
8.296266198158264160e-01 -1.656309068202972412e-01 1.696992069482803345e-01
8.293073773384094238e-01 -1.667503565549850464e-01 1.697017699480056763e-01
8.289881944656372070e-01 -1.678697913885116577e-01 1.697043329477310181e-01
8.286690115928649902e-01 -1.689892411231994629e-01 1.697069108486175537e-01
8.283498287200927734e-01 -1.701086908578872681e-01 1.697094738483428955e-01
8.280306458473205566e-01 -1.712281256914138794e-01 1.697120368480682373e-01
8.277114033699035645e-01 -1.723475754261016846e-01 1.697145998477935791e-01
8.273922204971313477e-01 -1.734670251607894897e-01 1.697171777486801147e-01
8.270730376243591309e-01 -1.745864599943161011e-01 1.697197407484054565e-01
8.267538547515869141e-01 -1.757059097290039062e-01 1.697223037481307983e-01
8.259397745132446289e-01 -1.766811460256576538e-01 1.705827862024307251e-01
8.256210088729858398e-01 -1.777990013360977173e-01 1.705853492021560669e-01
8.253022432327270508e-01 -1.789168566465377808e-01 1.705879122018814087e-01
8.249835371971130371e-01 -1.800347119569778442e-01 1.705904752016067505e-01
8.241716623306274414e-01 -1.810019612312316895e-01 1.714509725570678711e-01
8.238533735275268555e-01 -1.821182221174240112e-01 1.714535355567932129e-01
8.235350847244262695e-01 -1.832344830036163330e-01 1.714560985565185547e-01
8.222333788871765137e-01 -1.840400397777557373e-01 1.731744110584259033e-01
8.219160437583923340e-01 -1.851531118154525757e-01 1.731769740581512451e-01
8.215986490249633789e-01 -1.862661838531494141e-01 1.731795221567153931e-01
8.203005790710449219e-01 -1.870589852333068848e-01 1.748978048563003540e-01
8.199840784072875977e-01 -1.881688833236694336e-01 1.749003529548645020e-01
8.186886906623840332e-01 -1.889521181583404541e-01 1.766186654567718506e-01
8.173951506614685059e-01 -1.897290050983428955e-01 1.783369183540344238e-01
8.170804977416992188e-01 -1.908325254917144775e-01 1.783394515514373779e-01
8.162777423858642578e-01 -1.917679458856582642e-01 1.791998893022537231e-01
8.145006895065307617e-01 -1.923608034849166870e-01 1.817759573459625244e-01
8.141878247261047363e-01 -1.934579610824584961e-01 1.817784756422042847e-01
8.133882880210876465e-01 -1.943822354078292847e-01 1.826388239860534668e-01
8.130759000778198242e-01 -1.954777985811233521e-01 1.826413422822952271e-01
8.113060593605041504e-01 -1.960451602935791016e-01 1.852173954248428345e-01
8.095389008522033691e-01 -1.966029852628707886e-01 1.877934336662292480e-01
8.092292547225952148e-01 -1.976889967918395996e-01 1.877959221601486206e-01
8.084351420402526855e-01 -1.985941678285598755e-01 1.886562258005142212e-01
8.081259131431579590e-01 -1.996785700321197510e-01 1.886587142944335938e-01
8.078167438507080078e-01 -2.007629871368408203e-01 1.886612027883529663e-01
8.075075149536132812e-01 -2.018474042415618896e-01 1.886636912822723389e-01
8.071983456611633301e-01 -2.029318064451217651e-01 1.886661797761917114e-01
8.068891167640686035e-01 -2.040162235498428345e-01 1.886686682701110840e-01
8.080251216888427734e-01 -2.056718170642852783e-01 1.860977113246917725e-01
8.081958293914794922e-01 -2.069529891014099121e-01 1.852424144744873047e-01
8.078848123550415039e-01 -2.080437690019607544e-01 1.852449178695678711e-01
8.090148568153381348e-01 -2.097200602293014526e-01 1.826740056276321411e-01
8.354014158248901367e-01 -1.454003006219863892e-01 1.673779189586639404e-01
8.350812792778015137e-01 -1.465229243040084839e-01 1.673804968595504761e-01
8.347612023353576660e-01 -1.476455628871917725e-01 1.673830747604370117e-01
8.344410657882690430e-01 -1.487681865692138672e-01 1.673856526613235474e-01
8.341209888458251953e-01 -1.498908251523971558e-01 1.673882305622100830e-01
8.338008522987365723e-01 -1.510134488344192505e-01 1.673907935619354248e-01
8.334807753562927246e-01 -1.521360874176025391e-01 1.673933714628219604e-01
8.331606984138488770e-01 -1.532587110996246338e-01 1.673959493637084961e-01
8.323379755020141602e-01 -1.542693674564361572e-01 1.682572960853576660e-01
8.320183753967285156e-01 -1.553904116153717041e-01 1.682598590850830078e-01
8.316987156867980957e-01 -1.565114557743072510e-01 1.682624369859695435e-01
8.308778405189514160e-01 -1.575157493352890015e-01 1.691237688064575195e-01
8.305586576461791992e-01 -1.586351841688156128e-01 1.691263318061828613e-01
8.302394747734069824e-01 -1.597546339035034180e-01 1.691289097070693970e-01
8.299202322959899902e-01 -1.608740836381912231e-01 1.691314727067947388e-01
8.296010494232177734e-01 -1.619935184717178345e-01 1.691340357065200806e-01
8.287829160690307617e-01 -1.629882603883743286e-01 1.699953526258468628e-01
8.284641504287719727e-01 -1.641061156988143921e-01 1.699979156255722046e-01
8.281454443931579590e-01 -1.652239710092544556e-01 1.700004786252975464e-01
8.273290991783142090e-01 -1.662123352289199829e-01 1.708618253469467163e-01
8.270108103752136230e-01 -1.673285961151123047e-01 1.708643734455108643e-01
8.266925215721130371e-01 -1.684448570013046265e-01 1.708669364452362061e-01
8.263742327690124512e-01 -1.695611178874969482e-01 1.708694994449615479e-01
8.260559439659118652e-01 -1.706773787736892700e-01 1.708720624446868896e-01
8.257376551628112793e-01 -1.717936247587203979e-01 1.708746254444122314e-01
8.249245285987854004e-01 -1.727708578109741211e-01 1.717358827590942383e-01
8.246066570281982422e-01 -1.738855242729187012e-01 1.717384457588195801e-01
8.242888450622558594e-01 -1.750001907348632812e-01 1.717410087585449219e-01
8.239710330963134766e-01 -1.761148571968078613e-01 1.717435568571090698e-01
8.236531615257263184e-01 -1.772295236587524414e-01 1.717461198568344116e-01
8.228427767753601074e-01 -1.781971901655197144e-01 1.726073622703552246e-01
8.225253820419311523e-01 -1.793102771043777466e-01 1.726099103689193726e-01
8.222079873085021973e-01 -1.804233491420745850e-01 1.726124733686447144e-01
8.218905925750732422e-01 -1.815364211797714233e-01 1.726150214672088623e-01
8.215732574462890625e-01 -1.826494932174682617e-01 1.726175695657730103e-01
8.207655549049377441e-01 -1.836076080799102783e-01 1.734787970781326294e-01
8.199587464332580566e-01 -1.845625489950180054e-01 1.743400096893310547e-01
8.196423053741455078e-01 -1.856724321842193604e-01 1.743425577878952026e-01
8.183478713035583496e-01 -1.864628344774246216e-01 1.760624796152114868e-01
8.180323243141174316e-01 -1.875695437192916870e-01 1.760650128126144409e-01
8.167406916618347168e-01 -1.883504092693328857e-01 1.777848601341247559e-01
8.159384131431579590e-01 -1.892894059419631958e-01 1.786460876464843750e-01
8.156241774559020996e-01 -1.903913319110870361e-01 1.786486208438873291e-01
8.148233294486999512e-01 -1.913255602121353149e-01 1.795097887516021729e-01
8.130508661270141602e-01 -1.919180154800415039e-01 1.820882260799407959e-01
8.127384781837463379e-01 -1.930135786533355713e-01 1.820907443761825562e-01
8.124260902404785156e-01 -1.941091418266296387e-01 1.820932626724243164e-01
8.121137619018554688e-01 -1.952047049999237061e-01 1.820957660675048828e-01
8.103480935096740723e-01 -1.957732588052749634e-01 1.846742033958435059e-01
8.085851669311523438e-01 -1.963322758674621582e-01 1.872526258230209351e-01
8.082755208015441895e-01 -1.974182873964309692e-01 1.872551143169403076e-01
8.074827790260314941e-01 -1.983238458633422852e-01 1.881162226200103760e-01
8.071736097335815430e-01 -1.994082629680633545e-01 1.881186962127685547e-01
8.068643808364868164e-01 -2.004926800727844238e-01 1.881211847066879272e-01
8.065551519393920898e-01 -2.015770822763442993e-01 1.881236732006072998e-01
8.062459826469421387e-01 -2.026614993810653687e-01 1.881261616945266724e-01
8.059367537498474121e-01 -2.037459164857864380e-01 1.881286501884460449e-01
8.070685863494873047e-01 -2.054003179073333740e-01 1.855553090572357178e-01
8.072378635406494141e-01 -2.066810876131057739e-01 1.846992224454879761e-01
8.069268465042114258e-01 -2.077718675136566162e-01 1.847017258405685425e-01
8.080527186393737793e-01 -2.094469666481018066e-01 1.821284294128417969e-01
8.344154953956604004e-01 -1.451204568147659302e-01 1.668188720941543579e-01
8.340953588485717773e-01 -1.462430953979492188e-01 1.668214499950408936e-01
8.337752819061279297e-01 -1.473657190799713135e-01 1.668240278959274292e-01
8.334551453590393066e-01 -1.484883576631546021e-01 1.668266057968139648e-01
8.331350684165954590e-01 -1.496109813451766968e-01 1.668291836977005005e-01
8.328149318695068359e-01 -1.507336050271987915e-01 1.668317466974258423e-01
8.324948549270629883e-01 -1.518562436103820801e-01 1.668343245983123779e-01
8.321747779846191406e-01 -1.529788672924041748e-01 1.668369024991989136e-01
8.313534855842590332e-01 -1.539899259805679321e-01 1.676990389823913574e-01
8.310338258743286133e-01 -1.551109701395034790e-01 1.677016168832778931e-01
8.307141661643981934e-01 -1.562319993972778320e-01 1.677041798830032349e-01
8.298947215080261230e-01 -1.572366952896118164e-01 1.685663014650344849e-01
8.295755386352539062e-01 -1.583561450242996216e-01 1.685688793659210205e-01
8.292562961578369141e-01 -1.594755798578262329e-01 1.685714423656463623e-01
8.289371132850646973e-01 -1.605950295925140381e-01 1.685740053653717041e-01
8.286179304122924805e-01 -1.617144793272018433e-01 1.685765832662582397e-01
8.278011679649353027e-01 -1.627096086740493774e-01 1.694386750459671021e-01
8.274824619293212891e-01 -1.638274639844894409e-01 1.694412380456924438e-01
8.271636962890625000e-01 -1.649453192949295044e-01 1.694438010454177856e-01
8.263487815856933594e-01 -1.659340709447860718e-01 1.703059375286102295e-01
8.260304927825927734e-01 -1.670503318309783936e-01 1.703085005283355713e-01
8.257122039794921875e-01 -1.681665927171707153e-01 1.703110635280609131e-01
8.253939151763916016e-01 -1.692828536033630371e-01 1.703136265277862549e-01
8.250756263732910156e-01 -1.703991144895553589e-01 1.703161895275115967e-01
8.247573375701904297e-01 -1.715153753757476807e-01 1.703187525272369385e-01
8.239455819129943848e-01 -1.724929958581924438e-01 1.711807996034622192e-01
8.236277699470520020e-01 -1.736076623201370239e-01 1.711833626031875610e-01
8.233098983764648438e-01 -1.747223287820816040e-01 1.711859256029129028e-01
8.229920864105224609e-01 -1.758370101451873779e-01 1.711884737014770508e-01
8.226742744445800781e-01 -1.769516766071319580e-01 1.711910367012023926e-01
8.218652009963989258e-01 -1.779197305440902710e-01 1.720530688762664795e-01
8.215478658676147461e-01 -1.790328174829483032e-01 1.720556318759918213e-01
8.212304711341857910e-01 -1.801458895206451416e-01 1.720581799745559692e-01
8.209130764007568359e-01 -1.812589615583419800e-01 1.720607280731201172e-01
8.205957412719726562e-01 -1.823720335960388184e-01 1.720632910728454590e-01
8.188115358352661133e-01 -1.830214112997055054e-01 1.746442764997482300e-01
8.180070519447326660e-01 -1.839735507965087891e-01 1.755062788724899292e-01
8.176915049552917480e-01 -1.850802600383758545e-01 1.755088269710540771e-01
8.168883919715881348e-01 -1.860276311635971069e-01 1.763708144426345825e-01
8.165732622146606445e-01 -1.871327459812164307e-01 1.763733476400375366e-01
8.152848482131958008e-01 -1.879127919673919678e-01 1.780948340892791748e-01
8.149706721305847168e-01 -1.890147179365158081e-01 1.780973523855209351e-01
8.146564364433288574e-01 -1.901166588068008423e-01 1.780998855829238892e-01
8.133717179298400879e-01 -1.908839792013168335e-01 1.798212826251983643e-01
8.120887279510498047e-01 -1.916449368000030518e-01 1.815426647663116455e-01
8.117763400077819824e-01 -1.927404850721359253e-01 1.815451830625534058e-01
8.114639520645141602e-01 -1.938360482454299927e-01 1.815476864576339722e-01
8.111515641212463379e-01 -1.949316114187240601e-01 1.815502047538757324e-01
8.093901276588439941e-01 -1.955013573169708252e-01 1.841310262680053711e-01
8.081139922142028809e-01 -1.962384283542633057e-01 1.858523488044738770e-01
8.078038692474365234e-01 -1.973260343074798584e-01 1.858548372983932495e-01
8.074937462806701660e-01 -1.984136253595352173e-01 1.858573406934738159e-01
8.070437312126159668e-01 -2.018612325191497803e-01 1.850054264068603516e-01
8.067331314086914062e-01 -2.029504328966140747e-01 1.850079298019409180e-01
8.064225912094116211e-01 -2.040396183729171753e-01 1.850104182958602905e-01
8.070698380470275879e-01 -2.055079936981201172e-01 1.832941472530364990e-01
8.077153563499450684e-01 -2.069827616214752197e-01 1.815778464078903198e-01
8.326064944267272949e-01 -1.458632200956344604e-01 1.671227812767028809e-01
8.322868347167968750e-01 -1.469842642545700073e-01 1.671253591775894165e-01
8.319671750068664551e-01 -1.481052935123443604e-01 1.671279370784759521e-01
8.316475749015808105e-01 -1.492263376712799072e-01 1.671305000782012939e-01
8.313279151916503906e-01 -1.503473669290542603e-01 1.671330779790878296e-01
8.305075764656066895e-01 -1.513604223728179932e-01 1.679960042238235474e-01
8.301883935928344727e-01 -1.524798721075057983e-01 1.679985821247100830e-01
8.298691511154174805e-01 -1.535993069410324097e-01 1.680011451244354248e-01
8.290506601333618164e-01 -1.546059995889663696e-01 1.688640564680099487e-01
8.287318944931030273e-01 -1.557238399982452393e-01 1.688666343688964844e-01
8.284131884574890137e-01 -1.568416953086853027e-01 1.688691973686218262e-01
8.280944228172302246e-01 -1.579595506191253662e-01 1.688717603683471680e-01
8.272781372070312500e-01 -1.589582562446594238e-01 1.697347015142440796e-01
8.264628052711486816e-01 -1.599538028240203857e-01 1.705975979566574097e-01
8.261449933052062988e-01 -1.610684692859649658e-01 1.706001609563827515e-01
8.253310322761535645e-01 -1.620592176914215088e-01 1.714630424976348877e-01
8.250136375427246094e-01 -1.631722897291183472e-01 1.714655905961990356e-01
8.246962428092956543e-01 -1.642853766679763794e-01 1.714681535959243774e-01
8.243788480758666992e-01 -1.653984487056732178e-01 1.714707016944885254e-01
8.240615129470825195e-01 -1.665115207433700562e-01 1.714732497930526733e-01
8.237441182136535645e-01 -1.676245927810668945e-01 1.714758127927780151e-01
8.234267234802246094e-01 -1.687376797199249268e-01 1.714783608913421631e-01
8.231093287467956543e-01 -1.698507517576217651e-01 1.714809089899063110e-01
8.227919936180114746e-01 -1.709638237953186035e-01 1.714834719896316528e-01
8.219825625419616699e-01 -1.719386577606201172e-01 1.723463088274002075e-01
8.216655850410461426e-01 -1.730501353740692139e-01 1.723488569259643555e-01
8.213486671447753906e-01 -1.741616278886795044e-01 1.723514050245285034e-01
8.210317492485046387e-01 -1.752731055021286011e-01 1.723539680242538452e-01
8.207148313522338867e-01 -1.763845831155776978e-01 1.723565161228179932e-01
8.203979134559631348e-01 -1.774960756301879883e-01 1.723590642213821411e-01
8.200809955596923828e-01 -1.786075532436370850e-01 1.723616123199462891e-01
8.192752003669738770e-01 -1.795696467161178589e-01 1.732244193553924561e-01
8.189586997032165527e-01 -1.806795448064804077e-01 1.732269674539566040e-01
8.186422586441040039e-01 -1.817894279956817627e-01 1.732295155525207520e-01
8.178381919860839844e-01 -1.827451437711715698e-01 1.740923672914505005e-01
8.170351386070251465e-01 -1.836976855993270874e-01 1.749551743268966675e-01
8.167195916175842285e-01 -1.848043948411941528e-01 1.749577075242996216e-01
8.159178495407104492e-01 -1.857521533966064453e-01 1.758204847574234009e-01
8.156027793884277344e-01 -1.868572682142257690e-01 1.758230328559875488e-01
8.143171072006225586e-01 -1.876381188631057739e-01 1.775460839271545410e-01
8.140029311180114746e-01 -1.887400448322296143e-01 1.775486171245574951e-01
8.136886954307556152e-01 -1.898419708013534546e-01 1.775511503219604492e-01
8.124067187309265137e-01 -1.906100958585739136e-01 1.792741268873214722e-01
8.116100430488586426e-01 -1.915403306484222412e-01 1.801368743181228638e-01
8.112971782684326172e-01 -1.926374882459640503e-01 1.801393926143646240e-01
8.105018138885498047e-01 -1.935629546642303467e-01 1.810021251440048218e-01
8.101894259452819824e-01 -1.946585178375244141e-01 1.810046434402465820e-01
8.089137673377990723e-01 -1.954043358564376831e-01 1.827276200056076050e-01
8.086023330688476562e-01 -1.964967101812362671e-01 1.827301234006881714e-01
8.070449233055114746e-01 -2.019585818052291870e-01 1.827426552772521973e-01
8.067334890365600586e-01 -2.030509561300277710e-01 1.827451586723327637e-01
8.064219951629638672e-01 -2.041433304548263550e-01 1.827476620674133301e-01
8.311204314231872559e-01 -1.454841494560241699e-01 1.674257069826126099e-01
8.308012485504150391e-01 -1.466035991907119751e-01 1.674282699823379517e-01
8.304820060729980469e-01 -1.477230340242385864e-01 1.674308478832244873e-01
8.301628232002258301e-01 -1.488424837589263916e-01 1.674334108829498291e-01
8.298436403274536133e-01 -1.499619334936141968e-01 1.674359738826751709e-01
8.290251493453979492e-01 -1.509737819433212280e-01 1.682997047901153564e-01
8.287064433097839355e-01 -1.520916372537612915e-01 1.683022677898406982e-01
8.283876776695251465e-01 -1.532094925642013550e-01 1.683048307895660400e-01
8.275709748268127441e-01 -1.542149633169174194e-01 1.691685914993286133e-01
8.272526860237121582e-01 -1.553312242031097412e-01 1.691711544990539551e-01
8.264374136924743652e-01 -1.563319414854049683e-01 1.700348556041717529e-01
8.261195421218872070e-01 -1.574466079473495483e-01 1.700374037027359009e-01
8.253056406974792480e-01 -1.584425270557403564e-01 1.709010899066925049e-01
8.244925737380981445e-01 -1.594352722167968750e-01 1.717647761106491089e-01
8.241756558418273926e-01 -1.605467647314071655e-01 1.717673242092132568e-01
8.233639597892761230e-01 -1.615347266197204590e-01 1.726309955120086670e-01
8.220589160919189453e-01 -1.623944044113159180e-01 1.743558198213577271e-01
8.217433691024780273e-01 -1.635010987520217896e-01 1.743583679199218750e-01
8.214277625083923340e-01 -1.646078079938888550e-01 1.743609011173248291e-01
8.211122155189514160e-01 -1.657145172357559204e-01 1.743634343147277832e-01
8.207966685295104980e-01 -1.668212264776229858e-01 1.743659824132919312e-01
8.204810619354248047e-01 -1.679279357194900513e-01 1.743685156106948853e-01
8.201655149459838867e-01 -1.690346300601959229e-01 1.743710488080978394e-01
8.198499679565429688e-01 -1.701413393020629883e-01 1.743735969066619873e-01
8.195344209671020508e-01 -1.712480485439300537e-01 1.743761301040649414e-01
8.192188143730163574e-01 -1.723547577857971191e-01 1.743786633014678955e-01
8.189032673835754395e-01 -1.734614670276641846e-01 1.743812114000320435e-01
8.185877203941345215e-01 -1.745681613683700562e-01 1.743837445974349976e-01
8.182721734046936035e-01 -1.756748706102371216e-01 1.743862777948379517e-01
8.179565668106079102e-01 -1.767815798521041870e-01 1.743888258934020996e-01
8.176410198211669922e-01 -1.778882890939712524e-01 1.743913590908050537e-01
8.173254728317260742e-01 -1.789949834346771240e-01 1.743938922882080078e-01
8.170098662376403809e-01 -1.801016926765441895e-01 1.743964403867721558e-01
8.166943192481994629e-01 -1.812084019184112549e-01 1.743989735841751099e-01
8.163787722587585449e-01 -1.823151111602783203e-01 1.744015067815780640e-01
8.160632252693176270e-01 -1.834218204021453857e-01 1.744040548801422119e-01
8.157476186752319336e-01 -1.845285147428512573e-01 1.744065880775451660e-01
8.149473071098327637e-01 -1.854766756296157837e-01 1.752701699733734131e-01
8.146322369575500488e-01 -1.865817904472351074e-01 1.752727031707763672e-01
8.133493661880493164e-01 -1.873634308576583862e-01 1.769973486661911011e-01
8.130351901054382324e-01 -1.884653568267822266e-01 1.769998818635940552e-01
8.127209544181823730e-01 -1.895672976970672607e-01 1.770024001598358154e-01
8.114417791366577148e-01 -1.903361976146697998e-01 1.787269711494445801e-01
8.106464743614196777e-01 -1.912668496370315552e-01 1.795905083417892456e-01
8.103336095809936523e-01 -1.923639923334121704e-01 1.795930266380310059e-01
8.095396757125854492e-01 -1.932898610830307007e-01 1.804565638303756714e-01
8.092272877693176270e-01 -1.943854242563247681e-01 1.804590672254562378e-01
8.079544305801391602e-01 -1.951320320367813110e-01 1.821836382150650024e-01
8.076429963111877441e-01 -1.962244063615798950e-01 1.821861416101455688e-01
8.073315024375915527e-01 -1.973167806863784790e-01 1.821886599063873291e-01
8.070200085639953613e-01 -1.984091550111770630e-01 1.821911633014678955e-01
8.067085146903991699e-01 -1.995015293359756470e-01 1.821936666965484619e-01
8.068749904632568359e-01 -2.007763385772705078e-01 1.813351809978485107e-01
8.060855865478515625e-01 -2.016862779855728149e-01 1.821986734867095947e-01
8.057740926742553711e-01 -2.027786523103713989e-01 1.822011768817901611e-01
8.054626584053039551e-01 -2.038710266351699829e-01 1.822036802768707275e-01
8.301373124122619629e-01 -1.452051103115081787e-01 1.668682545423507690e-01
8.298181295394897461e-01 -1.463245451450347900e-01 1.668708175420761108e-01
8.294988870620727539e-01 -1.474439948797225952e-01 1.668733805418014526e-01
8.291797041893005371e-01 -1.485634446144104004e-01 1.668759584426879883e-01
8.288605213165283203e-01 -1.496828794479370117e-01 1.668785214424133301e-01
8.280434608459472656e-01 -1.506951302289962769e-01 1.677430421113967896e-01
8.277246952056884766e-01 -1.518129855394363403e-01 1.677456051111221313e-01
8.274059295654296875e-01 -1.529308408498764038e-01 1.677481681108474731e-01
8.265906572341918945e-01 -1.539367139339447021e-01 1.686127185821533203e-01
8.262723684310913086e-01 -1.550529748201370239e-01 1.686152815818786621e-01
8.254584670066833496e-01 -1.560540795326232910e-01 1.694797724485397339e-01
8.251406550407409668e-01 -1.571687459945678711e-01 1.694823205471038818e-01
8.243280649185180664e-01 -1.581650674343109131e-01 1.703468114137649536e-01
8.235164284706115723e-01 -1.591582149267196655e-01 1.712112724781036377e-01
8.231995105743408203e-01 -1.602697074413299561e-01 1.712138354778289795e-01
8.223892450332641602e-01 -1.612580716609954834e-01 1.720782965421676636e-01
8.210869431495666504e-01 -1.621185243129730225e-01 1.738047003746032715e-01
8.207713961601257324e-01 -1.632252335548400879e-01 1.738072484731674194e-01
8.204558491706848145e-01 -1.643319427967071533e-01 1.738097816705703735e-01
8.201403021812438965e-01 -1.654386520385742188e-01 1.738123148679733276e-01
8.198246955871582031e-01 -1.665453463792800903e-01 1.738148629665374756e-01
8.195091485977172852e-01 -1.676520556211471558e-01 1.738173961639404297e-01
8.191936016082763672e-01 -1.687587648630142212e-01 1.738199293613433838e-01
8.188780546188354492e-01 -1.698654741048812866e-01 1.738224774599075317e-01
8.185624480247497559e-01 -1.709721833467483521e-01 1.738250106573104858e-01
8.182469010353088379e-01 -1.720788776874542236e-01 1.738275438547134399e-01
8.179313540458679199e-01 -1.731855869293212891e-01 1.738300919532775879e-01
8.176157474517822266e-01 -1.742922961711883545e-01 1.738326251506805420e-01
8.173002004623413086e-01 -1.753990054130554199e-01 1.738351732492446899e-01
8.169846534729003906e-01 -1.765056997537612915e-01 1.738377064466476440e-01
8.166691064834594727e-01 -1.776124089956283569e-01 1.738402396440505981e-01
8.163534998893737793e-01 -1.787191182374954224e-01 1.738427877426147461e-01
8.160379528999328613e-01 -1.798258274793624878e-01 1.738453209400177002e-01
8.157224059104919434e-01 -1.809325367212295532e-01 1.738478541374206543e-01
8.154068589210510254e-01 -1.820392310619354248e-01 1.738504022359848022e-01
8.150912523269653320e-01 -1.831459403038024902e-01 1.738529354333877563e-01
8.147757053375244141e-01 -1.842526495456695557e-01 1.738554686307907104e-01
8.139767646789550781e-01 -1.852012127637863159e-01 1.747198402881622314e-01
8.136616945266723633e-01 -1.863063126802444458e-01 1.747223734855651855e-01
8.123816251754760742e-01 -1.870887577533721924e-01 1.764486134052276611e-01
8.120674490928649902e-01 -1.881906837224960327e-01 1.764511466026306152e-01
8.117532134056091309e-01 -1.892926096916198730e-01 1.764536648988723755e-01
8.114390373229980469e-01 -1.903945356607437134e-01 1.764561980962753296e-01
8.106442093849182129e-01 -1.913287639617919922e-01 1.773205399513244629e-01
8.103304505348205566e-01 -1.924290955066680908e-01 1.773230582475662231e-01
8.090572357177734375e-01 -1.931876540184020996e-01 1.790491938591003418e-01
8.087444305419921875e-01 -1.942848116159439087e-01 1.790517121553421021e-01
8.079527616500854492e-01 -1.952078938484191895e-01 1.799160242080688477e-01
8.066835999488830566e-01 -1.959521025419235229e-01 1.816421598196029663e-01
8.063721656799316406e-01 -1.970444768667221069e-01 1.816446781158447266e-01
8.060606718063354492e-01 -1.981368511915206909e-01 1.816471815109252930e-01
8.057491779327392578e-01 -1.992292255163192749e-01 1.816496849060058594e-01
8.059142827987670898e-01 -2.005036473274230957e-01 1.807904094457626343e-01
8.056023120880126953e-01 -2.015976011753082275e-01 1.807929128408432007e-01
8.057660460472106934e-01 -2.028768062591552734e-01 1.799336075782775879e-01
8.286554217338562012e-01 -1.448272168636322021e-01 1.671735495328903198e-01
8.283366560935974121e-01 -1.459450721740722656e-01 1.671761125326156616e-01
8.280179500579833984e-01 -1.470629274845123291e-01 1.671786755323410034e-01
8.276991844177246094e-01 -1.481807827949523926e-01 1.671812385320663452e-01
8.273804187774658203e-01 -1.492986381053924561e-01 1.671838015317916870e-01
8.265652060508728027e-01 -1.503096818923950195e-01 1.680491566658020020e-01
8.262469172477722168e-01 -1.514259427785873413e-01 1.680517196655273438e-01
8.254330158233642578e-01 -1.524322181940078735e-01 1.689170151948928833e-01
8.246200680732727051e-01 -1.534353196620941162e-01 1.697823107242584229e-01
8.243026733398437500e-01 -1.545483916997909546e-01 1.697848588228225708e-01
8.239853382110595703e-01 -1.556614637374877930e-01 1.697874069213867188e-01
