6.947770714759826660e-01 2.152194380760192871e-01 2.052108496427536011e-01
6.942290663719177246e-01 2.169799059629440308e-01 2.045761793851852417e-01
6.935737133026123047e-01 2.196402698755264282e-01 2.038659900426864624e-01
6.931564211845397949e-01 2.268536686897277832e-01 2.032173424959182739e-01
6.930283308029174805e-01 2.371369302272796631e-01 2.025297582149505615e-01
6.960341334342956543e-01 2.118040770292282104e-01 2.064057141542434692e-01
6.954624652862548828e-01 2.139063328504562378e-01 2.057320773601531982e-01
6.953822970390319824e-01 2.143456637859344482e-01 2.054350525140762329e-01
6.950311660766601562e-01 2.149334847927093506e-01 2.048831433057785034e-01
6.943876743316650391e-01 2.165331691503524780e-01 2.042458802461624146e-01
6.936365365982055664e-01 2.193606197834014893e-01 2.033158540725708008e-01
6.930906772613525391e-01 2.253541350364685059e-01 2.022170871496200562e-01
6.928563714027404785e-01 2.348166555166244507e-01 2.006053626537322998e-01
6.964095234870910645e-01 2.122018337249755859e-01 2.059434503316879272e-01
6.957454681396484375e-01 2.142409682273864746e-01 2.054156064987182617e-01
6.956701278686523438e-01 2.152472287416458130e-01 2.052236646413803101e-01
6.952639222145080566e-01 2.152959406375885010e-01 2.048372626304626465e-01
6.947501897811889648e-01 2.167017608880996704e-01 2.041903436183929443e-01
6.939767003059387207e-01 2.194464206695556641e-01 2.031088769435882568e-01
6.932306289672851562e-01 2.241237908601760864e-01 2.015725672245025635e-01
6.926516890525817871e-01 2.330285310745239258e-01 1.994303166866302490e-01
6.965653896331787109e-01 2.129426151514053345e-01 2.057050466537475586e-01
6.960695385932922363e-01 2.149475067853927612e-01 2.053106129169464111e-01
6.958101391792297363e-01 2.161951959133148193e-01 2.051161378622055054e-01
6.956616044044494629e-01 2.159896790981292725e-01 2.048601955175399780e-01
6.951349377632141113e-01 2.168917357921600342e-01 2.041523307561874390e-01
6.941204667091369629e-01 2.193985432386398315e-01 2.029138505458831787e-01
6.932431459426879883e-01 2.237536758184432983e-01 2.010421305894851685e-01
6.924742460250854492e-01 2.319776862859725952e-01 1.986543387174606323e-01
6.967399120330810547e-01 2.136832028627395630e-01 2.055222988128662109e-01
6.963401436805725098e-01 2.158652245998382568e-01 2.051195353269577026e-01
6.960248947143554688e-01 2.172588557004928589e-01 2.047865837812423706e-01
6.959865093231201172e-01 2.169686555862426758e-01 2.046418786048889160e-01
6.954152584075927734e-01 2.169571816921234131e-01 2.041741609573364258e-01
6.942856907844543457e-01 2.195666134357452393e-01 2.026248574256896973e-01
6.932361125946044922e-01 2.237193733453750610e-01 2.003058940172195435e-01
6.921535134315490723e-01 2.318953871726989746e-01 1.974809020757675171e-01
6.972481012344360352e-01 2.144175618886947632e-01 2.051497250795364380e-01
6.967902779579162598e-01 2.164473384618759155e-01 2.048064023256301880e-01
6.961454153060913086e-01 2.180073708295822144e-01 2.042598277330398560e-01
6.960304379463195801e-01 2.179422527551651001e-01 2.041578888893127441e-01
6.955988407135009766e-01 2.174695879220962524e-01 2.039079368114471436e-01
6.943954229354858398e-01 2.199129164218902588e-01 2.018558382987976074e-01
6.930932402610778809e-01 2.243954390287399292e-01 1.991781294345855713e-01
6.914102435111999512e-01 2.327319085597991943e-01 1.950795799493789673e-01
6.979945302009582520e-01 2.139434814453125000e-01 2.035651803016662598e-01
6.972703933715820312e-01 2.167669534683227539e-01 2.035181373357772827e-01
6.965950727462768555e-01 2.178610861301422119e-01 2.032443284988403320e-01
6.959342956542968750e-01 2.182431221008300781e-01 2.028631716966629028e-01
6.954070329666137695e-01 2.182644754648208618e-01 2.022731602191925049e-01
6.939280629158020020e-01 2.202324420213699341e-01 1.995545029640197754e-01
6.923962831497192383e-01 2.246554940938949585e-01 1.959875077009201050e-01
6.910008192062377930e-01 2.351598441600799561e-01 1.916261762380599976e-01
-1.946220993995666504e-01 2.294188737869262695e-01 -1.842783689498901367e-01
-2.541740834712982178e-01 3.341870009899139404e-01 -1.470689773559570312e-01
-2.785433530807495117e-01 4.145271182060241699e-01 -1.804262399673461914e-01
-2.844161093235015869e-01 4.921458661556243896e-01 -2.192121446132659912e-01
-2.931388020515441895e-01 5.790284872055053711e-01 -2.281765788793563843e-01
-3.038984537124633789e-01 6.457046270370483398e-01 -2.173435539007186890e-01
-3.349568247795104980e-01 6.698154211044311523e-01 -1.489900499582290649e-01
-4.051387310028076172e-01 6.729849576950073242e-01 -4.435897618532180786e-02
-2.423469424247741699e-01 2.210393548011779785e-01 -2.574524283409118652e-01
-3.135611712932586670e-01 2.435717284679412842e-01 -2.111321985721588135e-01
-3.617291748523712158e-01 3.419528603553771973e-01 -1.847345232963562012e-01
-3.787023127079010010e-01 4.142609238624572754e-01 -2.173285335302352905e-01
-3.712965250015258789e-01 4.885388016700744629e-01 -2.401932179927825928e-01
-3.754056692123413086e-01 5.715219974517822266e-01 -2.318230718374252319e-01
-3.982717990875244141e-01 6.459988951683044434e-01 -1.995741724967956543e-01
-4.677401483058929443e-01 6.735953092575073242e-01 -9.604281187057495117e-02
-2.508140206336975098e-01 2.733212411403656006e-01 -2.921028137207031250e-01
-3.494349122047424316e-01 2.043251395225524902e-01 -2.822083234786987305e-01
-4.189541935920715332e-01 2.523285150527954102e-01 -2.287214547395706177e-01
-4.450682401657104492e-01 3.405162096023559570e-01 -1.900926977396011353e-01
-4.502996802330017090e-01 4.083139896392822266e-01 -1.902691870927810669e-01
-4.582033455371856689e-01 4.831709861755371094e-01 -1.939638257026672363e-01
-4.751740097999572754e-01 5.719304680824279785e-01 -1.826415657997131348e-01
-5.216177105903625488e-01 6.457787752151489258e-01 -1.301732957363128662e-01
-2.895278334617614746e-01 3.512195348739624023e-01 -2.813185155391693115e-01
-3.737296164035797119e-01 2.696391642093658447e-01 -2.980153560638427734e-01
-4.688945412635803223e-01 1.959688961505889893e-01 -2.644062340259552002e-01
-5.064885616302490234e-01 2.577939331531524658e-01 -1.801791787147521973e-01
-5.290348529815673828e-01 3.371913433074951172e-01 -1.228593662381172180e-01
-5.366202592849731445e-01 4.056793451309204102e-01 -1.265427321195602417e-01
-5.493022203445434570e-01 4.919144511222839355e-01 -1.292369514703750610e-01
-5.664185285568237305e-01 5.922255516052246094e-01 -1.142363101243972778e-01
-3.355300426483154297e-01 4.185931384563446045e-01 -2.805704474449157715e-01
-4.325985312461853027e-01 3.505162000656127930e-01 -2.769456207752227783e-01
-5.091404914855957031e-01 2.628136277198791504e-01 -2.643657326698303223e-01
-5.638580918312072754e-01 1.943378448486328125e-01 -2.139123678207397461e-01
-5.806758403778076172e-01 2.604912221431732178e-01 -1.269254982471466064e-01
-5.890479087829589844e-01 3.385249972343444824e-01 -7.931818068027496338e-02
-5.952042341232299805e-01 4.183033704757690430e-01 -8.077360689640045166e-02
-6.093602180480957031e-01 5.214839577674865723e-01 -8.133601397275924683e-02
-4.001851677894592285e-01 4.802078306674957275e-01 -2.700526714324951172e-01
-4.813408851623535156e-01 4.172961711883544922e-01 -2.527125179767608643e-01
-5.500547289848327637e-01 3.391328155994415283e-01 -2.430867552757263184e-01
-5.903391242027282715e-01 2.542250454425811768e-01 -2.330502420663833618e-01
-6.219421029090881348e-01 1.975600421428680420e-01 -1.735043674707412720e-01
-6.385552287101745605e-01 2.627762854099273682e-01 -7.950849086046218872e-02
-6.370055675506591797e-01 3.559046387672424316e-01 -4.206386208534240723e-02
-6.514235138893127441e-01 4.468995034694671631e-01 -4.437107220292091370e-02
-4.385542869567871094e-01 5.419400334358215332e-01 -2.597362995147705078e-01
-5.163007974624633789e-01 4.869502782821655273e-01 -2.351247966289520264e-01
-5.810061693191528320e-01 4.188207387924194336e-01 -2.126742899417877197e-01
-6.267992258071899414e-01 3.353585004806518555e-01 -2.058678120374679565e-01
-6.558751463890075684e-01 2.527288794517517090e-01 -1.853893697261810303e-01
-6.830341815948486328e-01 2.143770456314086914e-01 -1.122532561421394348e-01
-6.838349103927612305e-01 2.846804261207580566e-01 -2.541987597942352295e-02
-7.034783363342285156e-01 3.866075873374938965e-01 -4.027433693408966064e-03
-4.963261783123016357e-01 5.781337022781372070e-01 -2.594203650951385498e-01
-5.770112872123718262e-01 5.412760972976684570e-01 -2.249058932065963745e-01
-6.413893699645996094e-01 4.823983311653137207e-01 -1.960480064153671265e-01
-6.930485963821411133e-01 4.121981263160705566e-01 -1.748117804527282715e-01
-7.213266491889953613e-01 3.306950330734252930e-01 -1.570988446474075317e-01
-7.284613251686096191e-01 2.584156990051269531e-01 -1.373330652713775635e-01
-7.485558986663818359e-01 2.346596419811248779e-01 -5.491795390844345093e-02
-7.792786955833435059e-01 3.247269392013549805e-01 2.008680999279022217e-02
3.359516859054565430e-01 -4.212476611137390137e-01 4.094365835189819336e-01
3.349713683128356934e-01 -4.219909012317657471e-01 4.093360900878906250e-01
3.336004614830017090e-01 -4.231705367565155029e-01 4.093638062477111816e-01
3.322438597679138184e-01 -4.242810010910034180e-01 4.092285931110382080e-01
3.314440548419952393e-01 -4.248598515987396240e-01 4.091514945030212402e-01
3.304312825202941895e-01 -4.241935312747955322e-01 4.088257551193237305e-01
3.296291828155517578e-01 -4.219479858875274658e-01 4.082486033439636230e-01
3.294022381305694580e-01 -4.186866879463195801e-01 4.079796969890594482e-01
3.357666730880737305e-01 -4.212393462657928467e-01 4.094210863113403320e-01
3.350456357002258301e-01 -4.220219552516937256e-01 4.094299077987670898e-01
3.339992761611938477e-01 -4.233128130435943604e-01 4.095136821269989014e-01
3.329123258590698242e-01 -4.243046641349792480e-01 4.094241559505462646e-01
3.320476114749908447e-01 -4.249719977378845215e-01 4.093486964702606201e-01
3.311153054237365723e-01 -4.246523380279541016e-01 4.090938568115234375e-01
3.305039405822753906e-01 -4.227228462696075439e-01 4.086311161518096924e-01
3.299492001533508301e-01 -4.194421768188476562e-01 4.081006050109863281e-01
3.360732197761535645e-01 -4.216194450855255127e-01 4.095688760280609131e-01
3.350331485271453857e-01 -4.222027957439422607e-01 4.095227122306823730e-01
3.344461619853973389e-01 -4.233930110931396484e-01 4.096227884292602539e-01
3.335690498352050781e-01 -4.243607819080352783e-01 4.096056520938873291e-01
3.326636552810668945e-01 -4.247669577598571777e-01 4.094852805137634277e-01
3.317860960960388184e-01 -4.246268868446350098e-01 4.092438220977783203e-01
3.314982056617736816e-01 -4.231560826301574707e-01 4.089714288711547852e-01
3.310191035270690918e-01 -4.197695553302764893e-01 4.083696901798248291e-01
3.361971974372863770e-01 -4.219129383563995361e-01 4.096262454986572266e-01
3.351653218269348145e-01 -4.223147332668304443e-01 4.095836579799652100e-01
3.348918855190277100e-01 -4.234147667884826660e-01 4.097435176372528076e-01
3.341969549655914307e-01 -4.242200553417205811e-01 4.097437858581542969e-01
3.335371613502502441e-01 -4.245586395263671875e-01 4.096384048461914062e-01
3.325338363647460938e-01 -4.241276979446411133e-01 4.093453586101531982e-01
3.327583968639373779e-01 -4.225052595138549805e-01 4.091098904609680176e-01
3.321301341056823730e-01 -4.199548959732055664e-01 4.086172878742218018e-01
3.366311788558959961e-01 -4.224416613578796387e-01 4.098480343818664551e-01
3.353224396705627441e-01 -4.225025177001953125e-01 4.096409082412719727e-01
3.353339731693267822e-01 -4.232957363128662109e-01 4.098044633865356445e-01
3.347895145416259766e-01 -4.241074323654174805e-01 4.098849296569824219e-01
3.343809247016906738e-01 -4.244366884231567383e-01 4.098323583602905273e-01
3.336755931377410889e-01 -4.235631823539733887e-01 4.095125198364257812e-01
3.337654173374176025e-01 -4.217991232872009277e-01 4.092587828636169434e-01
3.331723511219024658e-01 -4.198577702045440674e-01 4.088540673255920410e-01
3.365287184715270996e-01 -4.239474534988403320e-01 4.102147221565246582e-01
3.352366685867309570e-01 -4.237545132637023926e-01 4.099439978599548340e-01
3.347296118736267090e-01 -4.238314926624298096e-01 4.098592996597290039e-01
3.348512053489685059e-01 -4.245797693729400635e-01 4.100044369697570801e-01
3.347120881080627441e-01 -4.249098002910614014e-01 4.100620150566101074e-01
3.348181545734405518e-01 -4.233350455760955811e-01 4.097793698310852051e-01
3.348734378814697266e-01 -4.215050041675567627e-01 4.094775319099426270e-01
3.341092169284820557e-01 -4.191733300685882568e-01 4.089109599590301514e-01
3.352245688438415527e-01 -4.261755645275115967e-01 4.104479551315307617e-01
3.344210088253021240e-01 -4.252732992172241211e-01 4.101420044898986816e-01
3.335978984832763672e-01 -4.252501130104064941e-01 4.099719524383544922e-01
3.333552479743957520e-01 -4.254813790321350098e-01 4.099596142768859863e-01
3.344359397888183594e-01 -4.247749745845794678e-01 4.100644588470458984e-01
3.354836106300354004e-01 -4.229475259780883789e-01 4.100074768066406250e-01
3.351893424987792969e-01 -4.208019375801086426e-01 4.094951152801513672e-01
3.341562151908874512e-01 -4.179787635803222656e-01 4.085952639579772949e-01
3.335119485855102539e-01 -4.286734461784362793e-01 4.104442298412322998e-01
3.330092430114746094e-01 -4.270056486129760742e-01 4.102008044719696045e-01
3.325716853141784668e-01 -4.261752963066101074e-01 4.100112020969390869e-01
3.327928781509399414e-01 -4.251967668533325195e-01 4.098860621452331543e-01
3.342697620391845703e-01 -4.241052865982055664e-01 4.100163578987121582e-01
3.357441127300262451e-01 -4.221914708614349365e-01 4.100343286991119385e-01
3.350559473037719727e-01 -4.198409318923950195e-01 4.093227982521057129e-01
3.327511548995971680e-01 -4.165896177291870117e-01 4.083210229873657227e-01
3.282498717308044434e-01 -3.326862156391143799e-01 2.829245924949645996e-01
3.260740935802459717e-01 -3.326762318611145020e-01 2.814191877841949463e-01
3.250248432159423828e-01 -3.326975703239440918e-01 2.809153795242309570e-01
3.249983787536621094e-01 -3.327066302299499512e-01 2.809520959854125977e-01
3.254224061965942383e-01 -3.326899707317352295e-01 2.810863554477691650e-01
3.257791399955749512e-01 -3.326697647571563721e-01 2.810488343238830566e-01
3.276017308235168457e-01 -3.327033817768096924e-01 2.812732160091400146e-01
3.291555643081665039e-01 -3.326177597045898438e-01 2.847876548767089844e-01
3.269993960857391357e-01 -3.326749503612518311e-01 2.816708683967590332e-01
3.251735568046569824e-01 -3.326873183250427246e-01 2.807566523551940918e-01
3.243846893310546875e-01 -3.326905965805053711e-01 2.803443074226379395e-01
3.240669369697570801e-01 -3.326951265335083008e-01 2.802424430847167969e-01
3.240000903606414795e-01 -3.327102959156036377e-01 2.802852988243103027e-01
3.242022991180419922e-01 -3.326659798622131348e-01 2.800959944725036621e-01
3.250869214534759521e-01 -3.326654732227325439e-01 2.800449728965759277e-01
3.263500034809112549e-01 -3.326886296272277832e-01 2.817198634147644043e-01
3.261834383010864258e-01 -3.326953053474426270e-01 2.811320722103118896e-01
3.250544071197509766e-01 -3.326964974403381348e-01 2.805879414081573486e-01
3.244155049324035645e-01 -3.326943814754486084e-01 2.802663445472717285e-01
3.239948749542236328e-01 -3.326943218708038330e-01 2.801137268543243408e-01
3.240033686161041260e-01 -3.327030241489410400e-01 2.801791727542877197e-01
3.246390223503112793e-01 -3.326866328716278076e-01 2.802259922027587891e-01
3.256876170635223389e-01 -3.326379060745239258e-01 2.801826298236846924e-01
3.268696069717407227e-01 -3.327424526214599609e-01 2.808926999568939209e-01
3.255177736282348633e-01 -3.326851427555084229e-01 2.807846069335937500e-01
3.249893784523010254e-01 -3.327117562294006348e-01 2.804811298847198486e-01
3.244794011116027832e-01 -3.326935172080993652e-01 2.802163958549499512e-01
3.243638873100280762e-01 -3.327020108699798584e-01 2.802118062973022461e-01
3.242518007755279541e-01 -3.327060937881469727e-01 2.802375257015228271e-01
3.253613114356994629e-01 -3.327028751373291016e-01 2.804386615753173828e-01
3.265687823295593262e-01 -3.326225876808166504e-01 2.801378071308135986e-01
3.276249468326568604e-01 -3.326669037342071533e-01 2.807099223136901855e-01
3.254103660583496094e-01 -3.327089846134185791e-01 2.807474434375762939e-01
3.248361051082611084e-01 -3.326922655105590820e-01 2.803842425346374512e-01
3.244772255420684814e-01 -3.327136039733886719e-01 2.802108526229858398e-01
3.246586024761199951e-01 -3.327182233333587646e-01 2.802672386169433594e-01
3.249309659004211426e-01 -3.327275812625885010e-01 2.804733514785766602e-01
3.262214958667755127e-01 -3.326686322689056396e-01 2.804511785507202148e-01
3.276324868202209473e-01 -3.325761258602142334e-01 2.800311148166656494e-01
3.288889229297637939e-01 -3.326345682144165039e-01 2.809974253177642822e-01
3.258229792118072510e-01 -3.327028155326843262e-01 2.805525958538055420e-01
3.248234093189239502e-01 -3.327314257621765137e-01 2.803633809089660645e-01
3.245939612388610840e-01 -3.327281773090362549e-01 2.802433371543884277e-01
3.248538374900817871e-01 -3.327359557151794434e-01 2.803357243537902832e-01
3.259665369987487793e-01 -3.327088654041290283e-01 2.804270088672637939e-01
3.275006413459777832e-01 -3.326473832130432129e-01 2.804110050201416016e-01
3.289002776145935059e-01 -3.325573503971099854e-01 2.799988985061645508e-01
3.300711810588836670e-01 -3.325921297073364258e-01 2.814376950263977051e-01
3.257409036159515381e-01 -3.327371478080749512e-01 2.801042795181274414e-01
3.248564004898071289e-01 -3.327659666538238525e-01 2.799417972564697266e-01
3.248964548110961914e-01 -3.327375948429107666e-01 2.799490988254547119e-01
3.250619173049926758e-01 -3.327219784259796143e-01 2.799696922302246094e-01
3.264968097209930420e-01 -3.326861858367919922e-01 2.800590991973876953e-01
3.290586471557617188e-01 -3.325939178466796875e-01 2.801709771156311035e-01
3.307098150253295898e-01 -3.324760496616363525e-01 2.802288234233856201e-01
3.318291604518890381e-01 -3.325510919094085693e-01 2.821828126907348633e-01
3.244785070419311523e-01 -3.327480852603912354e-01 2.790319323539733887e-01
3.239548504352569580e-01 -3.327760994434356689e-01 2.788951098918914795e-01
3.246712982654571533e-01 -3.327404856681823730e-01 2.790560722351074219e-01
3.252305984497070312e-01 -3.327220976352691650e-01 2.791262567043304443e-01
3.268987238407135010e-01 -3.326602578163146973e-01 2.792972028255462646e-01
3.296453952789306641e-01 -3.325602114200592041e-01 2.794736921787261963e-01
3.313338756561279297e-01 -3.324598968029022217e-01 2.802119851112365723e-01
3.314856588840484619e-01 -3.326092958450317383e-01 2.831870913505554199e-01
2.198330461978912354e-01 -3.859193027019500732e-01 2.159517258405685425e-01
2.202614247798919678e-01 -3.829484283924102783e-01 2.090077400207519531e-01
2.203792631626129150e-01 -3.814839720726013184e-01 2.048121690750122070e-01
2.203491777181625366e-01 -3.805238902568817139e-01 2.015697658061981201e-01
2.204332351684570312e-01 -3.801113069057464600e-01 1.986249089241027832e-01
2.208397835493087769e-01 -3.793442547321319580e-01 1.945267617702484131e-01
2.208172082901000977e-01 -3.781685829162597656e-01 1.881714761257171631e-01
2.202699780464172363e-01 -3.757212460041046143e-01 1.836180686950683594e-01
2.187730520963668823e-01 -3.855096101760864258e-01 2.138090729713439941e-01
2.194619923830032349e-01 -3.818407952785491943e-01 2.059894204139709473e-01
2.198053598403930664e-01 -3.807761073112487793e-01 2.017856240272521973e-01
2.199888527393341064e-01 -3.801388144493103027e-01 1.979634165763854980e-01
2.195787429809570312e-01 -3.796258568763732910e-01 1.947667300701141357e-01
2.189640253782272339e-01 -3.791483640670776367e-01 1.915014237165451050e-01
2.183341830968856812e-01 -3.781329393386840820e-01 1.855612993240356445e-01
2.180626094341278076e-01 -3.763572275638580322e-01 1.806980222463607788e-01
2.183423787355422974e-01 -3.858455121517181396e-01 2.130528688430786133e-01
2.187525182962417603e-01 -3.818044662475585938e-01 2.040966004133224487e-01
2.192778885364532471e-01 -3.806025385856628418e-01 1.989869624376296997e-01
2.196244746446609497e-01 -3.798640370368957520e-01 1.952134221792221069e-01
2.195435911417007446e-01 -3.792023658752441406e-01 1.916597038507461548e-01
2.187716066837310791e-01 -3.787538409233093262e-01 1.885395050048828125e-01
2.183725982904434204e-01 -3.779762387275695801e-01 1.840579360723495483e-01
2.180061787366867065e-01 -3.764389157295227051e-01 1.792216300964355469e-01
2.177203297615051270e-01 -3.859413564205169678e-01 2.117716073989868164e-01
2.183599919080734253e-01 -3.822140693664550781e-01 2.030675262212753296e-01
2.189947515726089478e-01 -3.803606033325195312e-01 1.967844069004058838e-01
2.192093282938003540e-01 -3.796012103557586670e-01 1.928758025169372559e-01
2.192570567131042480e-01 -3.789049088954925537e-01 1.894503980875015259e-01
2.191586643457412720e-01 -3.783768415451049805e-01 1.863039880990982056e-01
2.188728153705596924e-01 -3.776876926422119141e-01 1.825444996356964111e-01
2.181784659624099731e-01 -3.762761354446411133e-01 1.779414862394332886e-01
2.169962376356124878e-01 -3.868432044982910156e-01 2.111772000789642334e-01
2.176808267831802368e-01 -3.826278448104858398e-01 2.021428346633911133e-01
2.182156294584274292e-01 -3.802644610404968262e-01 1.950829029083251953e-01
2.184463739395141602e-01 -3.794013261795043945e-01 1.908475756645202637e-01
2.187533676624298096e-01 -3.787423074245452881e-01 1.877545118331909180e-01
2.193180918693542480e-01 -3.780584335327148438e-01 1.845672726631164551e-01
2.191009670495986938e-01 -3.773115873336791992e-01 1.805171370506286621e-01
2.184869050979614258e-01 -3.758268356323242188e-01 1.761187314987182617e-01
2.152894586324691772e-01 -3.881323039531707764e-01 2.105252593755722046e-01
2.162538468837738037e-01 -3.834991455078125000e-01 2.010910511016845703e-01
2.170250862836837769e-01 -3.806236088275909424e-01 1.941204667091369629e-01
2.177533805370330811e-01 -3.792413473129272461e-01 1.889451444149017334e-01
2.188161611557006836e-01 -3.785025775432586670e-01 1.861595213413238525e-01
2.196311950683593750e-01 -3.777970969676971436e-01 1.830034404993057251e-01
2.193951308727264404e-01 -3.767313659191131592e-01 1.779380589723587036e-01
2.182343602180480957e-01 -3.752650022506713867e-01 1.738379746675491333e-01
2.128955721855163574e-01 -3.915492594242095947e-01 2.101178765296936035e-01
2.142521142959594727e-01 -3.851028680801391602e-01 1.999090313911437988e-01
2.153405100107192993e-01 -3.813917040824890137e-01 1.921840608119964600e-01
2.173581272363662720e-01 -3.790998160839080811e-01 1.867171227931976318e-01
2.187678664922714233e-01 -3.780869245529174805e-01 1.831099390983581543e-01
2.196078151464462280e-01 -3.773824870586395264e-01 1.800649166107177734e-01
2.187134772539138794e-01 -3.763182163238525391e-01 1.749946922063827515e-01
2.170654386281967163e-01 -3.746989071369171143e-01 1.707282364368438721e-01
2.093547582626342773e-01 -3.998789787292480469e-01 2.086625546216964722e-01
2.120837867259979248e-01 -3.875963091850280762e-01 1.968881338834762573e-01
2.147095948457717896e-01 -3.828538954257965088e-01 1.897041201591491699e-01
2.165812253952026367e-01 -3.799757659435272217e-01 1.852631568908691406e-01
2.181049734354019165e-01 -3.781836926937103271e-01 1.808720082044601440e-01
2.184388488531112671e-01 -3.770219683647155762e-01 1.764522492885589600e-01
2.169659435749053955e-01 -3.758220672607421875e-01 1.707451641559600830e-01
2.152585834264755249e-01 -3.740742206573486328e-01 1.663281172513961792e-01
1.970658004283905029e-01 -4.339120388031005859e-01 2.203565835952758789e-01
1.963600814342498779e-01 -4.296819865703582764e-01 2.115350514650344849e-01
1.958278417587280273e-01 -4.262341260910034180e-01 2.052677571773529053e-01
1.959370076656341553e-01 -4.229612052440643311e-01 1.992653906345367432e-01
1.963846683502197266e-01 -4.195626974105834961e-01 1.935696601867675781e-01
1.967727541923522949e-01 -4.164414107799530029e-01 1.890400946140289307e-01
1.976625919342041016e-01 -4.121679067611694336e-01 1.828388273715972900e-01
1.969421207904815674e-01 -4.066373705863952637e-01 1.748233139514923096e-01
1.937878727912902832e-01 -4.341379106044769287e-01 2.157128155231475830e-01
1.927730143070220947e-01 -4.294708967208862305e-01 2.064020335674285889e-01
1.929608583450317383e-01 -4.255021810531616211e-01 2.000563144683837891e-01
1.924301385879516602e-01 -4.219332039356231689e-01 1.942114979028701782e-01
1.920455098152160645e-01 -4.193206727504730225e-01 1.900397837162017822e-01
1.918586492538452148e-01 -4.168779253959655762e-01 1.864078491926193237e-01
1.913926303386688232e-01 -4.141401648521423340e-01 1.818364560604095459e-01
1.903011500835418701e-01 -4.094029068946838379e-01 1.750392019748687744e-01
1.917164325714111328e-01 -4.348602294921875000e-01 2.122802734375000000e-01
1.913584768772125244e-01 -4.294581711292266846e-01 2.026587575674057007e-01
1.909060776233673096e-01 -4.245904982089996338e-01 1.953128725290298462e-01
1.901642084121704102e-01 -4.211488664150238037e-01 1.898738294839859009e-01
1.892946362495422363e-01 -4.189056456089019775e-01 1.865033209323883057e-01
1.892731785774230957e-01 -4.171803295612335205e-01 1.841827929019927979e-01
1.872818768024444580e-01 -4.151105284690856934e-01 1.807906776666641235e-01
1.860382556915283203e-01 -4.111351072788238525e-01 1.747403889894485474e-01
1.887412071228027344e-01 -4.366481900215148926e-01 2.105424702167510986e-01
1.898508965969085693e-01 -4.298332631587982178e-01 1.999824345111846924e-01
1.893060803413391113e-01 -4.241199195384979248e-01 1.919667869806289673e-01
1.888316869735717773e-01 -4.207786023616790771e-01 1.870380640029907227e-01
1.886813640594482422e-01 -4.185823798179626465e-01 1.838264018297195435e-01
1.889674067497253418e-01 -4.173262417316436768e-01 1.821667104959487915e-01
1.870433390140533447e-01 -4.160720705986022949e-01 1.800108104944229126e-01
1.837072968482971191e-01 -4.135638773441314697e-01 1.756933778524398804e-01
1.841870844364166260e-01 -4.397073984146118164e-01 2.109332233667373657e-01
1.860711276531219482e-01 -4.317893683910369873e-01 1.990731209516525269e-01
1.871252357959747314e-01 -4.257293939590454102e-01 1.913899779319763184e-01
1.876494586467742920e-01 -4.207517802715301514e-01 1.851506829261779785e-01
1.880002617835998535e-01 -4.185712039470672607e-01 1.823742091655731201e-01
1.882734298706054688e-01 -4.177185595035552979e-01 1.810322254896163940e-01
1.862183809280395508e-01 -4.170794785022735596e-01 1.793058067560195923e-01
1.825035214424133301e-01 -4.150191247463226318e-01 1.756056994199752808e-01
1.791977584362030029e-01 -4.448112249374389648e-01 2.086065113544464111e-01
1.811482310295104980e-01 -4.357086420059204102e-01 2.002455890178680420e-01
1.842831671237945557e-01 -4.291278123855590820e-01 1.924044191837310791e-01
1.862567961215972900e-01 -4.235506653785705566e-01 1.862801611423492432e-01
1.872303783893585205e-01 -4.212461113929748535e-01 1.838884353637695312e-01
1.868862807750701904e-01 -4.202417135238647461e-01 1.822434812784194946e-01
1.842237412929534912e-01 -4.191498756408691406e-01 1.795872002840042114e-01
1.799283623695373535e-01 -4.171432256698608398e-01 1.751431375741958618e-01
1.752736866474151611e-01 -4.475714564323425293e-01 1.965076029300689697e-01
1.762564778327941895e-01 -4.405059516429901123e-01 2.008053213357925415e-01
1.805913150310516357e-01 -4.323636591434478760e-01 1.906753182411193848e-01
1.825987398624420166e-01 -4.278056025505065918e-01 1.863087266683578491e-01
1.835694313049316406e-01 -4.250296652317047119e-01 1.832677721977233887e-01
1.831002235412597656e-01 -4.232236146926879883e-01 1.814236938953399658e-01
1.808477938175201416e-01 -4.210754036903381348e-01 1.774296164512634277e-01
1.756359040737152100e-01 -4.184004366397857666e-01 1.715775430202484131e-01
1.676017940044403076e-01 -4.486201405525207520e-01 1.810980886220932007e-01
1.672970652580261230e-01 -4.457981884479522705e-01 1.907541602849960327e-01
1.698804199695587158e-01 -4.384489953517913818e-01 1.905715167522430420e-01
1.743349730968475342e-01 -4.324132800102233887e-01 1.846136003732681274e-01
1.751908063888549805e-01 -4.290606379508972168e-01 1.816247552633285522e-01
1.742599606513977051e-01 -4.274796843528747559e-01 1.787796318531036377e-01
1.700820326805114746e-01 -4.258475601673126221e-01 1.744440197944641113e-01
1.595584750175476074e-01 -4.223447740077972412e-01 1.664415150880813599e-01
7.591678202152252197e-02 5.063573718070983887e-01 -2.576656341552734375e-01
7.040089368820190430e-02 5.150872468948364258e-01 -2.588241100311279297e-01
6.875672936439514160e-02 5.184916257858276367e-01 -2.584733366966247559e-01
6.675551831722259521e-02 5.199263691902160645e-01 -2.580704987049102783e-01
6.349368393421173096e-02 5.204923748970031738e-01 -2.572812139987945557e-01
6.027443706989288330e-02 5.210213661193847656e-01 -2.565120756626129150e-01
5.726532638072967529e-02 5.214555263519287109e-01 -2.557118833065032959e-01
4.333989322185516357e-02 5.215971469879150391e-01 -2.549699544906616211e-01
6.486561894416809082e-02 4.993696212768554688e-01 -2.567464709281921387e-01
5.868372321128845215e-02 5.098537206649780273e-01 -2.583118081092834473e-01
5.715893208980560303e-02 5.161091685295104980e-01 -2.576358318328857422e-01
5.547203123569488525e-02 5.193621516227722168e-01 -2.574201822280883789e-01
5.213762819766998291e-02 5.209050178527832031e-01 -2.569410800933837891e-01
5.065187811851501465e-02 5.212818384170532227e-01 -2.564148902893066406e-01
4.760713875293731689e-02 5.221834182739257812e-01 -2.558446526527404785e-01
3.226840496063232422e-02 5.227751731872558594e-01 -2.550162076950073242e-01
5.583177506923675537e-02 4.845429062843322754e-01 -2.559517621994018555e-01
4.887954890727996826e-02 5.036823749542236328e-01 -2.604304850101470947e-01
4.675148427486419678e-02 5.123965144157409668e-01 -2.587470710277557373e-01
4.479323327541351318e-02 5.176002979278564453e-01 -2.574567496776580811e-01
4.412303864955902100e-02 5.203713774681091309e-01 -2.570753395557403564e-01
4.296112060546875000e-02 5.213884115219116211e-01 -2.567504942417144775e-01
3.816574811935424805e-02 5.222304463386535645e-01 -2.560077905654907227e-01
2.031955122947692871e-02 5.238910317420959473e-01 -2.548113763332366943e-01
5.071009695529937744e-02 4.611660242080688477e-01 -2.546822726726531982e-01
3.975115716457366943e-02 4.926121234893798828e-01 -2.601508796215057373e-01
3.922162950038909912e-02 5.071736574172973633e-01 -2.601307034492492676e-01
3.867997229099273682e-02 5.146217942237854004e-01 -2.586170434951782227e-01
3.799256682395935059e-02 5.189687013626098633e-01 -2.574582397937774658e-01
3.594771027565002441e-02 5.218844413757324219e-01 -2.564945816993713379e-01
2.634082734584808350e-02 5.229642391204833984e-01 -2.557607293128967285e-01
4.003524780273437500e-03 5.248895287513732910e-01 -2.544511258602142334e-01
4.392008483409881592e-02 4.251515865325927734e-01 -2.547990977764129639e-01
2.633222937583923340e-02 4.727627635002136230e-01 -2.590914964675903320e-01
2.446681261062622070e-02 4.981703460216522217e-01 -2.615993320941925049e-01
2.434647083282470703e-02 5.115569233894348145e-01 -2.600892782211303711e-01
2.090449631214141846e-02 5.177884697914123535e-01 -2.584591209888458252e-01
1.376846432685852051e-02 5.227575302124023438e-01 -2.571967244148254395e-01
1.892030239105224609e-03 5.245255231857299805e-01 -2.549945116043090820e-01
-2.671149745583534241e-02 5.259945392608642578e-01 -2.540275156497955322e-01
2.785177528858184814e-02 3.750370740890502930e-01 -2.558021545410156250e-01
6.723374128341674805e-03 4.367624521255493164e-01 -2.610695362091064453e-01
-3.638923168182373047e-03 4.781080484390258789e-01 -2.623344659805297852e-01
-5.313903093338012695e-03 5.033811330795288086e-01 -2.625245451927185059e-01
-1.141506433486938477e-02 5.155962705612182617e-01 -2.600795924663543701e-01
-2.180672064423561096e-02 5.209791064262390137e-01 -2.592251300811767578e-01
-3.692993521690368652e-02 5.252529382705688477e-01 -2.579277753829956055e-01
-7.036850601434707642e-02 5.272369384765625000e-01 -2.560209035873413086e-01
-6.307989358901977539e-03 3.004334568977355957e-01 -2.702215015888214111e-01
-3.106230869889259338e-02 3.877391517162322998e-01 -2.625811398029327393e-01
-4.719308018684387207e-02 4.416418075561523438e-01 -2.627232670783996582e-01
-5.405072867870330811e-02 4.787648916244506836e-01 -2.644253373146057129e-01
-6.723089516162872314e-02 5.015728473663330078e-01 -2.668578028678894043e-01
-7.942457497119903564e-02 5.133244991302490234e-01 -2.655080854892730713e-01
-9.615560621023178101e-02 5.222393870353698730e-01 -2.640545964241027832e-01
-1.263324916362762451e-01 5.286412239074707031e-01 -2.616172730922698975e-01
-8.070991933345794678e-02 2.273835092782974243e-01 -2.635344564914703369e-01
-1.013664528727531433e-01 3.162330985069274902e-01 -2.679874598979949951e-01
-1.269379258155822754e-01 3.944254517555236816e-01 -2.656885683536529541e-01
-1.371797621250152588e-01 4.453134834766387939e-01 -2.668114900588989258e-01
-1.485969722270965576e-01 4.802347719669342041e-01 -2.681300640106201172e-01
-1.620056629180908203e-01 5.034781098365783691e-01 -2.690193951129913330e-01
-1.737048774957656860e-01 5.168512463569641113e-01 -2.667743563652038574e-01
-1.954396814107894897e-01 5.267813801765441895e-01 -2.631073594093322754e-01
-3.391602635383605957e-02 -1.057810634374618530e-01 -2.459322214126586914e-01
-6.067356467247009277e-02 -6.705331802368164062e-02 -2.577452063560485840e-01
-8.253133296966552734e-02 -2.560373954474925995e-02 -2.667992115020751953e-01
-9.023177623748779297e-02 8.284175768494606018e-03 -2.745028436183929443e-01
-9.913304448127746582e-02 4.183512181043624878e-02 -2.815637588500976562e-01
-1.196098029613494873e-01 7.041560858488082886e-02 -2.878789305686950684e-01
-1.500555872917175293e-01 9.745668619871139526e-02 -2.933728396892547607e-01
-1.985551118850708008e-01 1.038359031081199646e-01 -2.657757103443145752e-01
-6.806132197380065918e-02 -1.318472325801849365e-01 -2.442271113395690918e-01
-9.791654348373413086e-02 -9.248625487089157104e-02 -2.551933526992797852e-01
-1.206371784210205078e-01 -5.792672932147979736e-02 -2.639388740062713623e-01
-1.299490332603454590e-01 -1.922178082168102264e-02 -2.707038819789886475e-01
-1.450227648019790649e-01 1.798896677792072296e-02 -2.782051265239715576e-01
-1.768989711999893188e-01 5.949801951646804810e-02 -2.866718173027038574e-01
-2.117341607809066772e-01 9.091591089963912964e-02 -2.935341596603393555e-01
-2.621056735515594482e-01 1.222036853432655334e-01 -2.862972021102905273e-01
-9.638816118240356445e-02 -1.756721884012222290e-01 -2.332895100116729736e-01
-1.238430440425872803e-01 -1.189904436469078064e-01 -2.513478696346282959e-01
-1.455869227647781372e-01 -8.573937416076660156e-02 -2.597795724868774414e-01
-1.617263406515121460e-01 -4.854684323072433472e-02 -2.675918936729431152e-01
-1.890967190265655518e-01 -5.015918985009193420e-03 -2.737749218940734863e-01
-2.187729328870773315e-01 3.880029171705245972e-02 -2.816175818443298340e-01
-2.543789446353912354e-01 8.246115595102310181e-02 -2.899308204650878906e-01
-2.969265580177307129e-01 1.237083002924919128e-01 -2.963596284389495850e-01
-1.212798058986663818e-01 -2.244701534509658813e-01 -2.307657003402709961e-01
-1.549305319786071777e-01 -1.623379290103912354e-01 -2.420245409011840820e-01
-1.760916411876678467e-01 -1.152956858277320862e-01 -2.538818717002868652e-01
-1.979563683271408081e-01 -7.728549838066101074e-02 -2.624663710594177246e-01
-2.253191471099853516e-01 -3.292836248874664307e-02 -2.684955298900604248e-01
-2.441758811473846436e-01 1.267873682081699371e-02 -2.766527235507965088e-01
-2.767126560211181641e-01 6.134501844644546509e-02 -2.856045663356781006e-01
-3.213921189308166504e-01 1.119415983557701111e-01 -2.938003540039062500e-01
-1.332857906818389893e-01 -1.901785433292388916e-01 -2.753827273845672607e-01
-1.909405887126922607e-01 -2.190603613853454590e-01 -2.315329313278198242e-01
-2.173205018043518066e-01 -1.522587835788726807e-01 -2.472600042819976807e-01
-2.344299256801605225e-01 -1.097614914178848267e-01 -2.551015317440032959e-01
-2.486488670110702515e-01 -6.647771596908569336e-02 -2.625699937343597412e-01
-2.663797438144683838e-01 -2.135250158607959747e-02 -2.723586559295654297e-01
-2.995291352272033691e-01 3.097301162779331207e-02 -2.810034453868865967e-01
-3.499514758586883545e-01 9.189958125352859497e-02 -2.916731536388397217e-01
-1.647885143756866455e-01 -1.278478801250457764e-01 -3.000898361206054688e-01
-2.274660915136337280e-01 -1.979089081287384033e-01 -2.702812552452087402e-01
-2.634172141551971436e-01 -2.091891914606094360e-01 -2.327841371297836304e-01
-2.722299695014953613e-01 -1.458226144313812256e-01 -2.458943128585815430e-01
-2.837753891944885254e-01 -1.030090823769569397e-01 -2.534806430339813232e-01
-3.036828935146331787e-01 -5.502384155988693237e-02 -2.622902095317840576e-01
-3.409210443496704102e-01 -4.018707200884819031e-03 -2.735292613506317139e-01
-3.956657648086547852e-01 5.506978183984756470e-02 -2.804437875747680664e-01
-2.144555151462554932e-01 -7.067712396383285522e-02 -3.111884593963623047e-01
-2.669530510902404785e-01 -1.325624436140060425e-01 -2.985937893390655518e-01
-3.061272501945495605e-01 -1.992206424474716187e-01 -2.612987160682678223e-01
-3.214212656021118164e-01 -1.986689269542694092e-01 -2.264389693737030029e-01
-3.322532176971435547e-01 -1.393716633319854736e-01 -2.374682873487472534e-01
-3.596626520156860352e-01 -9.036295115947723389e-02 -2.478793263435363770e-01
-3.970313370227813721e-01 -4.023607075214385986e-02 -2.574402689933776855e-01
-4.440966844558715820e-01 2.337856031954288483e-02 -2.651812136173248291e-01
-2.837980389595031738e-01 -1.029250212013721466e-02 -3.357602953910827637e-01
-3.342579305171966553e-01 -6.861664354801177979e-02 -3.104979395866394043e-01
-3.577955961227416992e-01 -1.323622614145278931e-01 -2.883510589599609375e-01
-3.887175023555755615e-01 -1.925609409809112549e-01 -2.497327625751495361e-01
-4.032011628150939941e-01 -1.854313462972640991e-01 -2.186722904443740845e-01
-4.268231093883514404e-01 -1.242339983582496643e-01 -2.301606237888336182e-01
-4.644210040569305420e-01 -6.275928020477294922e-02 -2.429958879947662354e-01
-5.074734687805175781e-01 -3.463516011834144592e-03 -2.488534599542617798e-01
1.858133077621459961e-02 -4.503436684608459473e-01 1.731209307909011841e-01
-2.914264798164367676e-02 -4.701378345489501953e-01 2.382863163948059082e-01
-6.355392932891845703e-02 -4.710246920585632324e-01 2.944671809673309326e-01
-6.098243594169616699e-02 -4.206182956695556641e-01 1.942298114299774170e-01
-5.786710977554321289e-02 -3.806049823760986328e-01 1.097697466611862183e-01
-7.960480451583862305e-02 -3.859666883945465088e-01 1.474297195672988892e-01
-1.187111139297485352e-01 -4.014512002468109131e-01 2.060197442770004272e-01
-1.800283193588256836e-01 -4.180928468704223633e-01 2.705871164798736572e-01
-3.107640147209167480e-02 -4.394057393074035645e-01 1.251531541347503662e-01
-7.565501332283020020e-02 -4.512744247913360596e-01 1.766351610422134399e-01
-1.098285317420959473e-01 -4.697961509227752686e-01 2.380419969558715820e-01
-1.356478333473205566e-01 -4.660903215408325195e-01 2.801985740661621094e-01
-1.371269822120666504e-01 -4.066390097141265869e-01 1.690900623798370361e-01
-1.484242975711822510e-01 -3.683134615421295166e-01 1.120540499687194824e-01
-1.953577697277069092e-01 -3.811177909374237061e-01 1.671239137649536133e-01
-2.571750581264495850e-01 -3.984197974205017090e-01 2.371401637792587280e-01
-7.696044445037841797e-02 -4.253144562244415283e-01 7.811777293682098389e-02
-1.231400072574615479e-01 -4.348077178001403809e-01 1.276485174894332886e-01
-1.516579687595367432e-01 -4.499203562736511230e-01 1.780891120433807373e-01
-1.772641241550445557e-01 -4.695016741752624512e-01 2.378018945455551147e-01
-1.947256922721862793e-01 -4.519637823104858398e-01 2.597677111625671387e-01
-2.097115367650985718e-01 -3.808754682540893555e-01 1.381820142269134521e-01
-2.575482130050659180e-01 -3.598755896091461182e-01 1.249741762876510620e-01
-3.176796734333038330e-01 -3.718281686305999756e-01 1.938629746437072754e-01
-1.104557812213897705e-01 -4.020701348781585693e-01 3.824405372142791748e-02
-1.575956344604492188e-01 -4.176715016365051270e-01 8.663234114646911621e-02
-1.835154592990875244e-01 -4.339144527912139893e-01 1.351933330297470093e-01
-2.098431289196014404e-01 -4.505070447921752930e-01 1.841787546873092651e-01
-2.322115898132324219e-01 -4.657831490039825439e-01 2.479383647441864014e-01
-2.693773508071899414e-01 -4.227975606918334961e-01 2.228429019451141357e-01
-3.006083667278289795e-01 -3.547366857528686523e-01 1.024221926927566528e-01
-3.517453372478485107e-01 -3.443108201026916504e-01 1.343386322259902954e-01
-1.441403329372406006e-01 -3.754945397377014160e-01 8.730426430702209473e-03
-1.839585602283477783e-01 -3.918026387691497803e-01 4.171706736087799072e-02
-2.140486240386962891e-01 -4.118506312370300293e-01 9.178635478019714355e-02
-2.384483516216278076e-01 -4.302167296409606934e-01 1.370702385902404785e-01
-2.661052644252777100e-01 -4.469205737113952637e-01 1.798944622278213501e-01
-3.037109971046447754e-01 -4.636641144752502441e-01 2.577378153800964355e-01
-3.290836513042449951e-01 -3.893752694129943848e-01 1.761298924684524536e-01
-3.687793314456939697e-01 -3.302457034587860107e-01 4.905192553997039795e-02
-1.821131110191345215e-01 -3.588201105594635010e-01 -1.505078375339508057e-02
-2.170657366514205933e-01 -3.673040568828582764e-01 1.236132532358169556e-02
-2.514379322528839111e-01 -3.829999566078186035e-01 4.329448938369750977e-02
-2.742102742195129395e-01 -3.989023268222808838e-01 9.249139577150344849e-02
-2.921460866928100586e-01 -4.186228811740875244e-01 1.312227547168731689e-01
-3.280934691429138184e-01 -4.487922787666320801e-01 1.703743934631347656e-01
-3.631814122200012207e-01 -4.493466019630432129e-01 2.462355792522430420e-01
-3.915043771266937256e-01 -3.503948152065277100e-01 9.976924955844879150e-02
-2.292019277811050415e-01 -3.416148126125335693e-01 -4.636497795581817627e-02
-2.656904458999633789e-01 -3.437677919864654541e-01 -1.258309185504913330e-02
-3.028541207313537598e-01 -3.513570427894592285e-01 1.990880072116851807e-02
-3.205669820308685303e-01 -3.625980317592620850e-01 4.615614563226699829e-02
-3.341169953346252441e-01 -3.806851804256439209e-01 7.755482941865921021e-02
-3.655016422271728516e-01 -3.971492946147918701e-01 1.169622838497161865e-01
-4.046086966991424561e-01 -4.346805810928344727e-01 1.763839125633239746e-01
-4.498993456363677979e-01 -4.152089357376098633e-01 2.354502230882644653e-01
-2.833805084228515625e-01 -3.196368515491485596e-01 -8.153133094310760498e-02
-3.226123154163360596e-01 -3.205858170986175537e-01 -4.603520035743713379e-02
-3.547260165214538574e-01 -3.258421421051025391e-01 -9.171754121780395508e-03
-3.783181011676788330e-01 -3.366199135780334473e-01 1.838915795087814331e-02
-4.031714797019958496e-01 -3.450344502925872803e-01 4.985683411359786987e-02
-4.321061670780181885e-01 -3.540295958518981934e-01 8.481256663799285889e-02
-4.734353423118591309e-01 -3.786528110504150391e-01 1.279807984828948975e-01
-5.371974706649780273e-01 -4.218572378158569336e-01 2.073550075292587280e-01
2.733981013298034668e-01 -3.606213629245758057e-01 2.321963906288146973e-01
2.732722163200378418e-01 -3.596098423004150391e-01 2.273220419883728027e-01
2.736489772796630859e-01 -3.590757846832275391e-01 2.245163023471832275e-01
2.735667228698730469e-01 -3.587734997272491455e-01 2.228633761405944824e-01
2.753064036369323730e-01 -3.582046031951904297e-01 2.211433351039886475e-01
2.776861190795898438e-01 -3.571187853813171387e-01 2.210633456707000732e-01
2.791237235069274902e-01 -3.553817570209503174e-01 2.211337834596633911e-01
2.795515060424804688e-01 -3.531148135662078857e-01 2.209903001785278320e-01
2.702559232711791992e-01 -3.612288534641265869e-01 2.301338762044906616e-01
2.704880833625793457e-01 -3.596539199352264404e-01 2.249817252159118652e-01
2.711427509784698486e-01 -3.588325679302215576e-01 2.216053903102874756e-01
2.706509828567504883e-01 -3.588823378086090088e-01 2.209579050540924072e-01
2.710832953453063965e-01 -3.587012290954589844e-01 2.201755940914154053e-01
2.728150188922882080e-01 -3.579038083553314209e-01 2.183591872453689575e-01
2.735642492771148682e-01 -3.565823733806610107e-01 2.178979963064193726e-01
2.731837928295135498e-01 -3.543190956115722656e-01 2.176332026720046997e-01
2.685200273990631104e-01 -3.616787493228912354e-01 2.293516695499420166e-01
2.698301672935485840e-01 -3.598771989345550537e-01 2.238052785396575928e-01
2.699995040893554688e-01 -3.590519726276397705e-01 2.208943814039230347e-01
2.699252963066101074e-01 -3.589333891868591309e-01 2.201755344867706299e-01
2.696671187877655029e-01 -3.588155508041381836e-01 2.193685770034790039e-01
2.711584568023681641e-01 -3.581421375274658203e-01 2.179471105337142944e-01
2.717105448246002197e-01 -3.571411669254302979e-01 2.166175544261932373e-01
2.706893980503082275e-01 -3.555283248424530029e-01 2.158787399530410767e-01
2.675010561943054199e-01 -3.621278405189514160e-01 2.296010851860046387e-01
2.688548564910888672e-01 -3.603035807609558105e-01 2.238734513521194458e-01
2.696005403995513916e-01 -3.592124581336975098e-01 2.208714932203292847e-01
2.697517275810241699e-01 -3.589876592159271240e-01 2.198515236377716064e-01
2.707709670066833496e-01 -3.584830462932586670e-01 2.186986356973648071e-01
2.717513442039489746e-01 -3.580653071403503418e-01 2.178063392639160156e-01
2.720717191696166992e-01 -3.571487069129943848e-01 2.163403630256652832e-01
2.708921432495117188e-01 -3.559536337852478027e-01 2.154111862182617188e-01
2.664520442485809326e-01 -3.623280525207519531e-01 2.287785857915878296e-01
2.676576972007751465e-01 -3.608714938163757324e-01 2.245282381772994995e-01
2.694695591926574707e-01 -3.594483435153961182e-01 2.209011018276214600e-01
2.700069546699523926e-01 -3.590385317802429199e-01 2.198017388582229614e-01
2.711215615272521973e-01 -3.584951758384704590e-01 2.187038809061050415e-01
2.722064852714538574e-01 -3.579175770282745361e-01 2.174870520830154419e-01
2.722885012626647949e-01 -3.571704328060150146e-01 2.162654548883438110e-01
2.719195485115051270e-01 -3.560083210468292236e-01 2.152491509914398193e-01
2.651774883270263672e-01 -3.633662164211273193e-01 2.293197363615036011e-01
2.666454911231994629e-01 -3.612169921398162842e-01 2.241597175598144531e-01
2.687242627143859863e-01 -3.597329556941986084e-01 2.207488566637039185e-01
2.697926759719848633e-01 -3.590201139450073242e-01 2.192256301641464233e-01
2.707842886447906494e-01 -3.585923016071319580e-01 2.185341268777847290e-01
2.720673084259033203e-01 -3.579207956790924072e-01 2.171995937824249268e-01
2.726634144783020020e-01 -3.569636642932891846e-01 2.157957404851913452e-01
2.722300291061401367e-01 -3.558360338211059570e-01 2.145317941904067993e-01
2.629166543483734131e-01 -3.676219582557678223e-01 2.329190373420715332e-01
2.653440237045288086e-01 -3.619917035102844238e-01 2.245887964963912964e-01
2.667831480503082275e-01 -3.604159951210021973e-01 2.206194698810577393e-01
2.688254714012145996e-01 -3.590776026248931885e-01 2.182561010122299194e-01
2.703988552093505859e-01 -3.584926724433898926e-01 2.173586338758468628e-01
2.711371779441833496e-01 -3.577817082405090332e-01 2.154747098684310913e-01
2.708556652069091797e-01 -3.569034636020660400e-01 2.132302671670913696e-01
2.694734930992126465e-01 -3.555988371372222900e-01 2.112850248813629150e-01
2.566035389900207520e-01 -3.782616257667541504e-01 2.418152689933776855e-01
2.593662738800048828e-01 -3.665889799594879150e-01 2.258887737989425659e-01
2.628165781497955322e-01 -3.615270853042602539e-01 2.200330942869186401e-01
2.633177340030670166e-01 -3.602282702922821045e-01 2.167624533176422119e-01
2.663757801055908203e-01 -3.587751388549804688e-01 2.145628631114959717e-01
2.671907544136047363e-01 -3.578939735889434814e-01 2.123338431119918823e-01
2.666825354099273682e-01 -3.570728600025177002e-01 2.098112851381301880e-01
