-3.098582754356566937e-01 -3.183531719762182632e-01 1.310442614866920152e-01
-2.739083776695432348e-01 -2.923668978927629336e-01 9.612228158251712173e-02
-2.530090818626584692e-01 -2.699023841140764102e-01 7.025108419990799824e-02
-4.822849045021238013e-01 -1.937359157384399566e-02 -5.295510408146908432e-02
-2.255401621086301489e-01 -2.655122238713598648e-01 4.145182851092288345e-02
-2.037675390464963598e-01 -2.537157494145727554e-01 2.373196366564700455e-02
-3.386420418642863694e-01 -1.519796806889868179e-01 -9.274806893729903301e-02
-6.043710125003975975e-02 -1.581779847290782914e-01 -1.591028659372757392e-01
1.151083924084694843e-03 8.351012238055899317e-03 -1.683670512523625096e-01
2.509752811760712632e-02 9.233328120727368749e-02 -1.685596735960614989e-01
-3.117797384483518286e-01 -3.535559732037878433e-01 1.417567301108069167e-01
-5.138795385582151098e-01 3.390488665980004868e-01 -9.198675867779781967e-02
-1.929075727684201880e-01 -2.620950895863867203e-01 2.158065322176883072e-02
-3.661638110700149440e-01 -2.599942245402033780e-01 9.451112829780838887e-02
-1.168309459907712622e-01 -2.208594638425207535e-01 -7.694907304509213120e-02
-8.753275968858620359e-02 -1.915546018201208511e-01 -1.275547873662286058e-01
-1.976283798439206763e-01 2.311128866356515488e-01 -1.616484057591729417e-01
5.300539634397605226e-02 1.764852595013284287e-01 -1.678414475606255785e-01
7.894452315341382587e-02 2.584162793240849521e-01 -1.609833868033063720e-01
-2.915041456443967505e-01 -2.265975433904028336e-01 1.921065333620974869e-02
-3.136416683418454809e-01 -3.838631320315695206e-01 1.282917428328222975e-01
-4.491778451596033506e-01 -2.428013385509688593e-01 1.540336980640821807e-03
-2.809411807962867158e-01 -3.271457426353108211e-01 1.259192736119796319e-01
-2.576987753135862036e-01 -3.194184261876440445e-01 1.056813168837256178e-01
-4.586497157636184596e-01 -2.672767597752905289e-01 -3.485932267570235332e-02
-2.529154628339309596e-01 -2.975326933779414151e-01 9.423617207145951191e-02
-7.165646650621315672e-02 5.903912004648681489e-02 -1.731976103471093431e-01
-2.216471840762004319e-01 -2.786712207712824796e-01 6.067567748960134288e-02
-1.421780596000852270e-01 -2.392430562096929947e-01 -4.871173021061947495e-02
-6.459498503038307859e-02 -2.083049971181250015e-01 -1.198295187638573900e-01
-5.631113149949928953e-02 -1.895703433273332461e-01 -1.380754939403507908e-01
1.794004342725852297e-02 -5.205142083943847808e-02 -1.731895041154198900e-01
-5.562957296592889733e-01 -2.038478437245849761e-02 -7.791198012097400039e-02
2.539547186862378680e-02 3.848460399593611747e-02 -1.647912229120440664e-01
8.040411034140859670e-02 2.310882677886219039e-01 -1.677895106276530157e-01
-4.735287437660398169e-01 3.956655081926818696e-02 -9.375954982502987534e-02
-2.875587949974240942e-01 -3.554771501141882339e-01 1.410696475022661378e-01
-2.049129019005002661e-01 -2.805354553777075211e-01 6.365157845751712173e-02
-2.006933698875608130e-01 -2.710823375302648941e-01 3.708984139697024673e-02
-4.633686552269162817e-01 -6.960546556294922027e-02 -2.175400969250729233e-02
-2.403975508898703595e-03 -7.664006534398559722e-02 -1.801191103146844164e-01
-1.492617140037717505e-01 -2.522911984044409195e-01 -2.601487605410124360e-03
-1.396186361534299536e-01 -2.466576057988500992e-01 -3.029845473034908920e-02
-2.698612310716530516e-02 -1.751823979932165543e-01 -1.507122349427514330e-01
-2.925297289746620066e-02 -1.617384426398884578e-01 -1.604486536668114915e-01
-2.678361233647841289e-03 -1.294356202543729406e-01 -1.774613008868781705e-01
1.718234918287375734e-02 -1.025745231229162613e-01 -1.750350427316003099e-01
2.649601202975659930e-02 1.125634130655761567e-02 -1.600841116593652025e-01
5.099797151258567141e-02 6.497031864344116059e-02 -1.645072928752873143e-01
5.187308690717795656e-02 9.372428473650451508e-02 -1.649931800053887621e-01
7.338917157819846437e-02 1.471076053064965805e-01 -1.675131749795251146e-01
-4.366867552025022192e-01 2.573733371180200180e-01 -1.302782129929833665e-01
9.738540551832297609e-02 1.787039678972863754e-01 -1.756802034066491380e-01
1.027321805732546167e-01 1.974558871668481430e-01 -1.757231783555321947e-01
-3.912183453463420335e-01 -2.495545703488684097e-01 5.549883527692434093e-02
-2.783813486320676489e-01 -4.276937204915380875e-01 1.158260274244971022e-01
-2.821755418998899145e-01 -4.116982180196142593e-01 1.193852889849371657e-01
-1.730864057762326880e-01 -2.822828251439428726e-01 3.502871278063723892e-02
-1.695431242210565514e-01 -2.706915814000463438e-01 1.507846596972406417e-02
-3.355203479352493190e-01 -3.784151035863256851e-01 1.163812645587947170e-01
-1.340014944297971411e-01 -2.623558003026342789e-01 -1.130477902157833725e-02
-3.383708097764870359e-02 -1.381609994489050308e-01 -1.690307688401513353e-01
-8.749397693305205337e-02 -2.248680947540300235e-01 -7.767612056795480946e-02
-5.694733152610957916e-01 -1.321504074651098648e-01 -1.500778910382316589e-02
3.052079580000022219e-02 -7.084971252263549957e-02 -1.683022510693841234e-01
-5.622718343956174536e-01 -1.583957034665441910e-01 -1.909981486065914780e-02
2.756253780693818101e-02 -4.632659339091138584e-02 -1.644596886323266283e-01
2.690715162394052840e-02 -1.915610747053531071e-02 -1.613306964456744375e-01
-5.689801384829387132e-01 1.124465109588606015e-01 -1.259719760901105712e-01
5.193277670144613722e-02 3.726751877826339765e-02 -1.585130354024768540e-01
-1.447236547691526098e-01 -2.018892350972656402e-02 -1.690883071905744384e-01
8.100088339816480243e-02 1.223486305953962461e-01 -1.666034888909631029e-01
-4.740237007362546606e-01 -1.889835852700567642e-01 1.583235147730777115e-02
1.083435207781295873e-01 2.074683151326481845e-01 -1.682266624457013915e-01
1.106331338661012964e-01 2.603398900908135971e-01 -1.640361380265527025e-01
-2.830980515020282695e-01 -3.788754558027738195e-01 1.404473948790259108e-01
-2.603267441017331763e-01 -3.529056865292883316e-01 1.321666109873480544e-01
-1.608974943382444067e-01 -2.862131554204321304e-01 3.289880040423343033e-02
5.229710556775124530e-03 -4.331115467529467189e-02 -1.690248481121037205e-01
-5.489500461249541274e-02 -2.140714882133500918e-01 -1.047594181385014256e-01
-1.046760717464678692e-03 -1.556653764734192702e-01 -1.609108280823998705e-01
3.087035717339325913e-02 -1.013922848620112394e-01 -1.680422456747663329e-01
-4.579517851097287817e-01 -1.231087404805517593e-01 -1.686854331331755219e-03
-6.412816145250221922e-02 -1.792178112584448257e-01 -1.513360869572930589e-01
-3.311635039538352032e-03 -1.421689349728918472e-01 -1.706541609452538744e-01
5.497574708631614016e-02 8.270983068337400823e-03 -1.583783459351830736e-01
8.270253356354118068e-02 9.663294456932258747e-02 -1.657163759328723618e-01
-2.558081159813108130e-01 -4.317695655741389249e-01 1.176401941293108155e-01
-8.800045746792406476e-02 -2.486672558703120206e-01 -5.306754824383785873e-02
-1.673197843858620359e-02 -1.974188047963476578e-01 -1.146274637864403978e-01
-2.352564344627561255e-01 -2.087172228413916031e-01 -6.338368174298336655e-02
-8.968592665881125470e-03 -1.799210268575048843e-01 -1.268836092637353197e-01
1.783084771803000734e-02 -1.531293648797369400e-01 -1.533571314500146165e-01
2.307115563191608487e-02 -1.294293097308705232e-01 -1.597754523177650210e-01
5.634222614253836525e-02 -1.740645948232177886e-02 -1.570216590706026150e-01
-9.275984861680885984e-02 2.041463297289514145e-01 -1.607035827325158373e-01
8.162707655069834090e-02 6.658643235914274428e-02 -1.638915371583276048e-01
-1.194665441734494848e-01 -7.775969885966138584e-02 -1.774968536383283446e-01
1.071700775136976702e-01 1.505897748816580339e-01 -1.662883591340356126e-01
-4.569770107490720434e-01 2.600666623991632065e-01 -1.094233822511010423e-01
1.130994718875157901e-01 1.779062448764603399e-01 -1.686272113352249580e-01
1.357369413154421167e-01 2.837143283766412338e-01 -1.578457486317925706e-01
-2.576147327644529028e-01 -4.167258996087408462e-01 1.273216176344580397e-01
-2.269366393310727759e-01 -3.275170880872106949e-01 1.139156836582846388e-01
-1.990512380821405358e-01 -3.061098057347630963e-01 9.065055135027844102e-02
-7.321810819932839109e-02 -2.578133303243017593e-01 -4.393468615277340561e-02
-5.610817548125552889e-01 6.537677596164126470e-02 -1.329185000743839939e-01
-3.028299818260373755e-01 -4.077723878938055435e-01 1.136629748655981764e-01
-5.197294650702666274e-02 -2.256833273488378921e-01 -7.716578559938791493e-02
-3.079259493181130125e-02 -2.053824025708532730e-01 -1.025613677190118089e-01
-2.247191451281160823e-03 -1.678588825780249483e-01 -1.297479462312036702e-01
3.329467675855735109e-02 -1.372030335980749527e-01 -1.431140732453637376e-01
-1.420276855962665508e-01 9.294372359589919697e-02 -1.657439132787585923e-01
5.400109193494895266e-02 -4.857580588299148516e-02 -1.587272715256982103e-01
7.719643813144116962e-02 7.056458958179190333e-03 -1.556637517299626072e-01
7.931739845786367482e-02 3.541134499046516559e-02 -1.608064688643473517e-01
-1.115335633181437913e-01 -4.993760171712402496e-02 -1.775606306082380126e-01
-8.812022306749245359e-02 -1.960116583424902359e-01 -1.157954764054589525e-01
1.089361300247011499e-01 1.210548472088479599e-01 -1.654389780448251024e-01
1.349636438996029142e-01 2.037617142016925342e-01 -1.668790676547129426e-01
-4.434090862495603247e-01 1.485877972525262436e-01 -1.150198709653191820e-01
1.373794750264671904e-01 2.318311460213053898e-01 -1.640854055229341579e-01
-2.494927654487790747e-01 -4.038708168584204117e-01 1.410182583643622145e-01
-2.294490347130002661e-01 -3.479493815022802750e-01 1.321021008803076047e-01
7.616182638406332472e-02 -3.514533171799449907e-01 1.526877195806075616e-01
-3.345787534935178442e-01 1.521110576075219711e-01 -1.428239973074567626e-01
1.371166100280580835e-01 -2.452587145882940689e-01 1.179081964804358229e-01
3.190686692970094995e-01 3.430866044443749985e-01 7.957042935625979752e-02
-5.097091207725705786e-01 -4.772678596954516017e-02 -2.353481766446163803e-02
2.092189779060182886e-01 1.988524835985803207e-01 -1.520339679406457201e-01
2.443761021074752904e-01 -1.287677114193401806e-01 1.075913193957278580e-02
-3.509762296898069067e-01 2.149348300379418930e-01 -1.427199673341088548e-01
2.063295831458864527e-01 2.143963616770410141e-01 -1.422360968278222337e-01
-1.999452805059345195e-01 -4.118659114302152258e-01 1.538723363506706576e-01
3.213367452400026636e-01 -1.671450916112426910e-02 -1.957855936749508530e-02
2.730544284871605498e-01 4.849350493830346664e-01 2.070860178441573662e-01
-3.151925811989011450e-01 -2.973292130547857681e-01 1.268823910071081862e-01
-1.479985723716916723e-01 -2.251903969365454117e-01 -5.161504265530636459e-02
3.015091409461794214e-01 5.871821484647098410e-01 2.034473983758318116e-01
-5.612804899437131567e-01 -3.174376073659423980e-02 -6.057534929974606186e-02
3.796861161964235620e-01 2.216452401560449204e-01 3.862644913927981705e-02
3.343484391944704370e-01 -2.119867283421850157e-01 2.246342826201148668e-01
1.119589001116256810e-01 -2.967307327507036074e-01 1.501250036869075100e-01
4.014418115394411402e-01 1.435198825281762680e-01 1.074413228346533522e-01
-5.767033109886350317e-01 1.623876136225366196e-01 -8.899281737072994858e-02
-9.011411764451882078e-02 -1.341259065450195465e-02 -1.718782019303612962e-01
9.374260804823020266e-02 -3.394889790135717789e-01 1.652918029143042311e-01
-4.382994184715451880e-01 -1.018127757626867691e-01 -4.018418308957150131e-02
2.113015641944704370e-01 -1.804949003774023453e-01 7.519079926745364517e-02
4.319455613868532495e-01 4.356653731745385727e-01 1.702349353148169264e-01
2.547437340197067357e-01 -1.105544525700903336e-01 6.847000947954873240e-03
1.891650666969120209e-01 2.332601111811303252e-01 -1.486239742921167117e-01
-4.047985086662473364e-01 1.191503223597045746e-02 -1.127856206582360521e-01
3.581414212959108667e-01 1.207817685288095078e-01 -1.887363013489773422e-02
3.665980261172521182e-01 2.079596731176451829e-01 7.807850528265491974e-03
-3.055344659481775693e-01 1.761512116558967556e-01 -1.494777716597575079e-01
3.647965353335607119e-01 2.340827370225435633e-01 8.108394177121613922e-03
3.514151563422975855e-01 3.108953278940820297e-01 7.406379464404055923e-02
3.693031460222702123e-01 -1.849533278066015640e-01 2.133330273939795241e-01
3.104654370495207871e-01 3.490449742443977321e-01 6.374398268681757962e-02
-1.697678575737180395e-01 -2.968042451459265152e-01 5.719597819582888931e-02
3.286975101521996123e-01 3.453056683394641890e-01 9.469364339674357645e-02
3.055603494422731714e-01 3.972719438270915226e-01 1.462882924391455397e-01
-1.496900329811277075e-01 -1.605754751283026138e-01 -1.374842357323937669e-01
1.388394822852907495e-01 6.592415190556688565e-02 -1.581141980177533934e-01
-9.809994795152565672e-02 -3.370129648030761871e-02 -1.729849409745507494e-01
8.584795581783133400e-02 -3.576373671949857336e-01 1.730216908766455397e-01
-3.385335216743650122e-01 1.191461723726892075e-01 -1.512864958928399339e-01
-1.380787382347286041e-01 -7.429713788808345321e-02 -1.768391203568748793e-01
-5.864662029573342039e-02 3.656779643713470307e-02 -1.686675381348901048e-01
1.319239129798708277e-01 -2.668682096717851504e-01 1.484620738341040358e-01
3.908134518810637559e-01 1.493363421839379868e-01 6.584046537245158426e-02
-1.924371729118528052e-01 3.389747184198999008e-01 -1.650385689423852220e-01
1.175194968955812769e-01 -2.988615590649938980e-01 1.989259589029974684e-01
5.220849504249391870e-01 4.320358675402307114e-01 1.360007095648474440e-01
2.423826843676071263e-01 1.448699252624341405e-02 -9.453849312527706772e-02
1.568430413978392224e-01 -2.364028650838232437e-01 1.262174535109228390e-01
2.049753656165895777e-01 4.930454533976220688e-01 1.246199775053686842e-01
-3.218481550438108130e-01 -1.348675448018408218e-01 -1.108449530289941087e-01
1.892921914832887964e-01 -2.034056145268774429e-01 9.447270317014333507e-02
-2.173259268028440161e-01 -7.888626638234619293e-02 -1.739247870133691087e-01
2.236978316766826680e-01 -1.644313294011450211e-01 6.102391620754321622e-02
3.362712585439711077e-01 5.122087705481619402e-01 2.087339727395403077e-01
-5.888851581244658462e-02 1.029511706847974217e-02 -1.682260067946088622e-01
3.345141401069460230e-01 -2.386711198407507339e-01 2.214788365675635085e-01
3.184294690864382105e-01 -1.193936498770753474e-03 1.299502137438723892e-02
1.283574094550905542e-01 -1.184214908200598160e-01 -7.337055918438961655e-02
1.351652135627565698e-01 1.225920957010888657e-01 -1.564852030760419677e-01
3.271068722185592748e-01 3.713661846338744965e-02 -1.561151262982418686e-02
-1.831555464097878172e-02 -1.480311113911962906e-01 -1.776267122910790697e-01
3.682189772702351149e-01 1.462414504768354551e-01 3.048754564287881053e-03
-5.729091265031716063e-02 -3.250334519463873306e-01 1.215521711422629103e-01
-3.242919454796018286e-01 1.881880801600122055e-01 -1.429067682908349290e-01
3.664352884071169214e-01 2.350780707281732163e-01 3.648026469485232681e-02
-4.505689153892697973e-01 3.562539857309960922e-01 -1.161006521867089525e-01
2.876973054578879641e-02 -2.891416508275366226e-01 7.348992112414309830e-02
3.053644374898460967e-01 5.123705649911409754e-01 2.107410087215813022e-01
9.968384009372144305e-02 -3.504494387227392593e-01 1.791807580305762038e-01
2.228129853980833630e-01 -1.860300737935400850e-01 1.713680434538549235e-01
1.014422565874557591e-01 -3.195702392178869644e-01 1.526355711930620362e-01
8.598589799573996828e-02 -4.571541506368017593e-01 1.335129905058569655e-01
1.228349199073610620e-01 -2.792518097478247086e-01 1.805108952833838210e-01
8.728980920484641359e-02 -3.298919904548025528e-01 1.445077526880926833e-01
-1.683952818138303442e-01 -2.333729821759558121e-01 -4.283545729382565170e-02
1.858398904578981714e-01 -2.067217189389563003e-01 1.205055880858130202e-01
1.558334817664919214e-01 -2.362325150090551773e-01 1.548239159895605788e-01
1.403667050053503118e-01 -1.325787589540903255e-01 -4.794746590879928050e-02
2.180810441749390094e-01 -1.801960903722144014e-01 9.145595315234134048e-02
2.966643800514043861e-01 -1.504416185933448169e-01 1.809722352339453444e-01
2.339816083686647730e-01 -1.621118146497106949e-01 8.428593161837527603e-02
2.771231164710821204e-01 -1.060884434300757295e-01 3.824781659380871446e-02
-4.172601709587278052e-01 -2.961869198399877945e-01 -2.701274868710568100e-02
-1.146626570054909422e-02 -4.563081223088598648e-01 1.187738347365088210e-01
-4.202489862663449927e-01 2.891092341822290024e-01 -1.378704440282159105e-01
-3.665626058799924536e-01 9.156586856747428449e-02 -1.425871511556506821e-01
-1.717913160545530005e-01 -1.021427726210111242e-01 -1.634616003406135221e-01
-1.117056617958249731e-01 -3.082020539361334244e-01 9.390430334345767349e-02
2.024667253272829370e-01 2.388033510925275937e-01 -1.388500364309919188e-01
-3.790383348686399145e-01 2.661977451723718247e-01 -1.469747852967553392e-01
3.179204454200563745e-01 -3.132736268819336090e-02 2.641226533190677017e-02
2.009150972144899683e-01 7.605974046578367620e-03 -1.137037706063561693e-01
3.790999243832722243e-01 1.529386879684431211e-01 1.532802664375565449e-02
-4.215472946388425513e-01 2.363098901194238266e-01 -1.237066518948846117e-01
-3.689274002932414476e-01 1.519783379318220273e-01 -1.425756048844628587e-01
-1.735421031537551784e-01 -4.338949504674438629e-02 -1.654806565926842943e-01
3.811523904578981714e-01 1.722554009836816391e-01 1.954843285815188736e-02
4.732557128049030837e-01 -4.652110321502855861e-02 2.042745121631648342e-01
3.623720908624736836e-01 2.868726805813728298e-01 6.522364244851885928e-02
3.867070135318995128e-01 9.174575160098452642e-02 9.238671279420063165e-02
4.748386532244186498e-01 2.887212609266476271e-01 1.734868720154258970e-01
-2.095581076830832501e-03 2.906125527304315170e-01 -1.593488585637383714e-01
3.103490660763874587e-01 4.367867749613427719e-01 1.944423683795954982e-01
3.334182888445358373e-01 3.926175476791364805e-01 1.555159656518327882e-01
9.962284467390158937e-02 -4.409910101014471451e-01 1.450411844565100417e-01
3.679711808936891870e-01 2.616622936409616074e-01 6.514711859957644791e-02
-1.712613115532102270e-01 1.759426635187768539e-01 -1.611062915808332274e-01
5.068936250379696418e-02 -3.885134178716040942e-01 1.683960604979224396e-01
-4.373977194053830786e-01 -1.193272653401855621e-02 -8.979759928448727280e-02
2.868480672614870386e-01 5.962077943673094182e-03 -5.931503888829281479e-02
-3.753926763755979223e-01 -3.603223520833349625e-01 7.755674603716800064e-02
1.340133452875225117e-01 -9.870663296930382025e-02 -1.026892154245804267e-01
3.768341531532106714e-01 2.263162773531579575e-01 5.920536998049685806e-02
-2.153589735252561255e-01 2.963824313563012680e-01 -1.751446556733422533e-01
1.785852899329958277e-01 -2.265236336308813492e-01 2.199492621733374342e-01
3.683153381126222925e-01 2.408640724104547104e-01 5.936949136988589615e-02
3.390146722572149329e-01 3.492640775126123476e-01 1.182456183745093092e-01
1.617535740313034154e-01 1.760868868909184481e-01 -1.552250814126305833e-01
3.035648389170999550e-01 4.570512018285100009e-01 1.999639837258684327e-01
3.551847924964723902e-01 3.599170487803124985e-01 1.323925423933691725e-01
3.311021318214235620e-01 3.814439218920373520e-01 1.506815123869604811e-01
1.883353912344007952e-01 9.533422690156889701e-03 -1.256504024088092031e-01
3.776564588325319605e-01 2.022747140806817612e-01 3.822328332201907486e-02
5.224671266248837043e-02 -4.046014982777930147e-01 1.698300767256446520e-01
-1.985513577682676001e-01 9.336120304285522309e-02 -1.662957501099877611e-01
8.124017617872336672e-02 -1.067000288087225357e-01 -1.317319106744103685e-01
1.098790159004030542e-01 -4.082370955067968765e-01 1.689879862779009034e-01
-3.057736565493449632e-01 -2.321726042348242203e-01 1.257957700030276627e-02
2.754191865699588959e-01 4.586587232035301831e-01 1.995534110380834392e-01
2.985023250358400659e-01 -4.698428097547058258e-02 -1.556011852486660629e-02
3.639469136970339136e-01 1.483086985033654770e-01 -2.228566325568892559e-02
4.062850465553102808e-01 4.682838958185815414e-01 1.974057126356787428e-01
3.201086511390505152e-01 -1.218495327550268570e-01 1.597579884840674147e-01
-2.283130496564407252e-01 -1.801053244191503921e-01 -1.187627943045270751e-01
1.362936486976442652e-01 -2.671465236264563003e-01 1.781323719336218581e-01
5.404894342201052027e-01 4.284182232302331528e-01 1.279673743559546217e-01
4.245820830441608962e-01 2.019081753176354965e-01 1.395659216556575100e-01
1.055343141334352808e-01 -2.959851647401614549e-01 1.203193964210114153e-01
2.272475948112306909e-01 -1.647057491856909195e-01 1.107678878618902907e-01
4.139753331916624646e-01 8.755449621071775823e-03 1.754598665548987579e-01
-1.117497692329587622e-01 -2.999277669507360855e-01 6.528784516589114517e-02
-2.550149238595933454e-01 -3.817493609241078278e-01 1.448943517254750457e-01
3.136278892023174336e-01 -5.026403081171104681e-02 3.614880326525637955e-02
3.280918588416872339e-01 -3.931384864629272613e-02 4.206665042178103775e-02
3.820624341743288355e-01 1.763492566031121811e-01 3.535165074603030533e-02
5.024613847511112397e-01 2.075007003229760727e-01 2.053439784361548170e-01
7.525277040174582766e-02 -4.224268156606054703e-01 1.590724158598608717e-01
-5.338021129193801784e-01 2.545265795471174375e-01 -8.656623280906416973e-02
3.726057996528444605e-01 2.263727229517602524e-01 7.976348880068728775e-02
2.470544566886720972e-01 -4.491054597676757965e-02 -6.903135594590237289e-02
3.697701285458698806e-01 2.936318359456364657e-01 9.389425996081302017e-02
3.502089967506227808e-01 -9.583270135701660308e-02 1.624702382399267897e-01
3.667824258582887964e-01 3.256445767166120664e-01 1.163297661457087795e-01
3.463532914893923120e-01 4.447604459208154282e-01 1.877974438978857741e-01
-5.492901899644753172e-02 -2.624871292032893155e-01 -2.149234530194332748e-02
-4.185073385460080786e-01 -1.576740402299261490e-01 -2.133963820202877670e-02
-6.517434217759987547e-02 -2.600965458470678726e-01 -3.937350031598141342e-02
3.336910595672426538e-01 4.857720774096154770e-01 2.045578080727286086e-01
2.561504831092653589e-01 -1.388952094632482925e-01 6.504167798296878189e-02
1.434319009559450464e-01 -4.249774176198339859e-01 1.496192384077734694e-01
-5.798697569200417234e-02 -4.297515907206232999e-01 1.420089968357112209e-01
2.009689798133669214e-01 -1.950763422566748062e-01 1.813430953337378249e-01
1.082980623023805933e-01 -3.718579966145849625e-01 1.960547137571997389e-01
-3.703358864324481914e-01 -2.731594827661438796e-01 1.177553275964855484e-01
7.026266954115012453e-02 -2.295253235417700211e-01 1.784087899462649673e-02
2.127393871721725560e-01 9.124180095214673436e-02 -1.475341947561872313e-01
1.128959381094007952e-01 -3.536980772996707323e-01 1.967217559596194931e-01
4.623551358955202417e-01 2.974731367510461411e-01 1.615681815458960280e-01
3.823198785560428803e-01 9.253082689463143495e-02 6.141533139483401627e-02
1.174342622535524683e-01 -3.255931759858889940e-01 2.009113664408817002e-01
2.408573617713747339e-01 -8.812423380026856989e-03 -9.028445002301266342e-02
3.351053387102584935e-01 6.518803454259081143e-02 -1.567588564618160873e-02
3.835085382240110974e-01 -1.510521951497567628e-02 1.530913758589453888e-01
2.993646135108765094e-01 9.434910234629145798e-02 -6.980996844037101745e-02
-3.398749838096799536e-01 3.187153182111088778e-01 -1.526466242160771092e-01
2.300177802818117456e-01 1.168870371264123520e-01 -1.400928926156335130e-01
1.921988715904054956e-01 -2.054245728570318619e-01 1.509788501574225172e-01
1.970174302833376245e-01 -1.946054258265192960e-01 1.488249071750666896e-01
-2.780202554464761278e-02 -2.436763517661701961e-01 -1.837710002780834628e-02
-5.940260984727796512e-02 -2.677351910191869688e-01 8.550922901791935260e-03
-5.689179907066526098e-01 3.526018477299852627e-02 -1.537193886127445897e-01
3.012593974845705347e-01 5.700883459728860458e-01 2.089471686197943434e-01
4.286591996925173120e-01 1.488468092363977036e-01 1.664586234404272780e-01
3.536519994514284448e-01 4.213762697397704926e-02 4.158452831840775410e-02
3.279678811805544214e-01 2.048729699534082016e-01 -6.794379469616940170e-02
3.343552511538732119e-01 5.423570061265474695e-01 2.109678469696980585e-01
3.601664162520332724e-01 6.710080719807787197e-02 3.969223316977021909e-02
3.669668426292238550e-01 9.405608889280792084e-02 3.878668132559726089e-02
-1.977370324886082997e-01 3.821190612335034764e-02 -1.672487886435163329e-01
2.548315515296755152e-01 -1.653277037857072695e-01 1.686014104201025710e-01
3.131670942085085230e-01 -2.198642078221801910e-02 -2.305941101773312241e-02
3.772919168250856714e-01 1.023162644785546860e-01 4.636110547320315689e-02
-3.542783270103635473e-01 1.430786293429040512e-01 -1.517758202241235033e-01
2.236709925566353618e-01 -1.799513571067463680e-01 1.492851969485535779e-01
4.090917100684938745e-01 -1.570222336369848648e-01 2.056429553343481764e-01
3.838260164039430933e-01 2.026122055135075595e-01 6.798368377622243663e-02
-4.079196462852658911e-01 -3.096661526280737320e-01 -3.829930540783932358e-02
3.556277742164430933e-01 5.685974400919580063e-01 2.194353509260840163e-01
5.020928285291770266e-02 -4.141846853810644546e-01 1.629260945631689772e-01
7.327103517225364016e-02 -9.315764489949707183e-02 -1.470745634721093431e-01
-1.389863500816526098e-01 -2.926676231938696304e-01 4.080228689448306412e-02
3.817261845049362279e-01 2.805980882726017978e-01 9.757949593798587173e-02
1.289921591855183181e-01 -3.285043595550554141e-01 2.155091929747290358e-01
4.975613345878420191e-01 3.992742639464044174e-01 1.577376592470831618e-01
-4.095642576439084692e-01 -3.019000250417089859e-01 6.901468518511721939e-02
2.743985643165407495e-01 2.869471882795529005e-01 -1.044129760748517821e-01
1.296946992652712183e-01 -2.984014261084890762e-01 2.120701837851233229e-01
3.744711866157350855e-01 2.117860954683923325e-01 6.472797873751590103e-02
4.904177179115114527e-01 4.872461002749108872e-01 1.474840808226294264e-01
2.169533560849323806e-01 -2.960270601827001968e-01 2.384462126407649318e-01
-5.228729257805051489e-01 -2.815675321401123199e-02 -3.188209053738644272e-02
2.474567199213115742e-01 2.864414494913720688e-01 -1.225030936202067267e-01
1.364396562354857068e-01 -1.984911742986206207e-02 -1.342094731019312093e-01
4.695805897491274195e-01 4.272650074642800888e-01 1.502212751223273024e-01
4.122591803647175368e-01 2.319174649002058164e-01 1.270378399206824049e-01
1.460139741676149683e-01 2.864186136116941839e-03 -1.417509746239953294e-01
-5.805346975547971411e-01 1.349225085657739243e-01 -1.141722035096459642e-01
3.850662017328350117e-01 2.612077550061164821e-01 9.402625870414271780e-02
3.635190318204060134e-01 5.150248648406966501e-01 2.134710717512793288e-01
2.771848538784196236e-01 1.501329420055488306e-01 -1.011607913225898159e-01
2.433441629188353161e-01 2.321749490183495634e-01 -1.218935322449974379e-01
3.664392620501022435e-01 5.382481656155887473e-01 2.129969962749507228e-01
2.105607181963424779e-01 -2.450295247950251554e-01 2.486235467904436280e-01
1.637330045478639917e-01 -3.272006867645280703e-01 2.304771511071550538e-01
3.531835069434938745e-01 7.982595928699209864e-03 9.664084199206302017e-02
2.935535897987184839e-01 -1.244727331715917984e-01 1.006773877455420241e-01
-2.727986357897727032e-03 -2.571186381894445816e-01 1.567669394747683853e-02
3.532189121024904566e-01 1.597872790514465180e-02 6.507022860781619400e-02
-4.165088345431193773e-01 9.271580394922729340e-02 -1.235848895397160252e-01
2.846525897758303003e-01 -1.046595830041265884e-01 6.111295703188845962e-02
3.597749632205236026e-01 3.523391047791823993e-02 6.428260431680499210e-02
-3.921597013694944067e-01 -2.062827307301855484e-01 -9.273035495119597016e-03
1.906913509147463159e-01 -1.675904053765631119e-01 3.965230468050906509e-02
-9.127665541857510334e-03 -4.072581488210058609e-01 1.581225085570043820e-01
2.807463397758303003e-01 -8.360841456235412750e-02 3.474103243512605133e-03
3.729529371040163355e-01 2.702937763613366684e-01 8.695174935595462173e-02
3.547148694770632105e-01 -6.907236162007812652e-02 1.562152870807673732e-01
-5.594890127403440161e-01 -1.238039690572119156e-01 2.723159077898928970e-02
3.882495552477340794e-01 1.188591561398808505e-01 6.174343509610769054e-02
-3.451126585228143639e-01 1.512012761515282300e-01 -1.482054066346458754e-01
1.425622691886720972e-01 -2.496479112225866714e-01 1.476268339468664870e-01
7.325196168592551516e-02 -1.258381563741064468e-01 -1.261797678159051195e-01
-1.461069593650998755e-01 -4.980161372006897125e-02 -1.706367861913018480e-01
1.413683086809616185e-01 -2.524074274617529312e-01 1.770365405394263014e-01
5.313866128700075464e-01 4.152652066630029282e-01 1.343058514906592116e-01
8.368563554456809328e-02 -1.336189765054083267e-01 -1.058630329058938280e-01
3.896448602454958277e-01 3.432668041866921982e-01 1.279139983965582594e-01
-3.399621768900367158e-01 2.620043285087931828e-01 -1.519006323502831712e-01
1.924131588033226592e-01 1.476392106182990993e-01 -1.537217586069534736e-01
3.997795572059450464e-01 3.584083360117578110e-01 1.377620864226050124e-01
2.769877900855837183e-01 -1.319885808545446793e-01 1.181978154493994460e-01
-5.047342787010373755e-01 -1.076263147908544937e-01 2.612866643206546158e-02
4.111692895667848902e-01 1.511482366874448147e-01 1.229791700067834892e-01
-2.869313567700881862e-01 -3.015946108418798843e-01 1.134804058386511549e-01
5.277482658800582982e-01 4.020078024945561435e-01 1.465608048750586256e-01
7.500885941296608905e-03 -3.906812626439428726e-01 1.643208432509131178e-01
-3.538482198936643286e-01 -1.245083767491674820e-01 -9.273217436535885483e-02
-9.831166364976784422e-02 -3.567453058371583552e-03 -1.776670050309472337e-01
1.650833596961795990e-01 -2.171782690602637178e-01 1.257963109327979723e-01
2.245151986854372339e-01 4.613815587443017563e-01 1.032103467299170241e-01
2.454485088762741185e-01 -1.566458501734431241e-01 1.228789059632646730e-01
-3.450877676231565161e-01 -3.675698000508642593e-01 1.127605605436987624e-01
1.353978134900124530e-03 -6.244015279592041168e-02 -1.711915564225487962e-01
3.886725892799196558e-01 4.543107392074567930e-01 1.842217215213801662e-01
3.854819129086628493e-01 5.105487348319990293e-01 2.074325649255144288e-01
2.710790624397096948e-01 3.994544189852380356e-01 -6.803621169789364487e-02
3.892897357719240503e-01 5.405516367834710678e-01 2.094327676607794508e-01
-5.025696764213742895e-01 2.665430721460815278e-02 -8.423535343869259506e-02
-3.420388708336057348e-01 -2.547494727689123550e-01 9.724344495074221939e-02
3.870928277747927027e-01 5.605941654922469430e-01 2.128351299279558351e-01
5.484693293400688674e-02 -4.373641313289839960e-01 1.532500127695202163e-01
1.452523062802448806e-01 -2.989728608050044034e-01 2.256244190845515529e-01
2.537876357810793237e-01 4.283657413405084213e-01 9.621812585131594986e-02
2.650229921119509058e-01 3.728273552340173325e-01 -9.450869080288937241e-02
3.124958777887432149e-01 -7.727828633539268743e-02 9.172710319637378262e-02
-4.265353689415158911e-01 -1.195071894246435562e-01 -3.133581396801998764e-02
1.990334977882204370e-01 -1.907753306943273941e-01 1.249996590925879225e-01
2.655551423805055933e-01 -1.168706375676489273e-01 3.017689469592044205e-02
6.947278000622780780e-03 -4.517853218633032242e-01 1.277359891249365553e-01
3.396430005805788355e-01 -1.801506264190844142e-02 8.893324616686770767e-02
-5.521671781761350317e-01 -8.368384424031738433e-02 2.498193267123172134e-02
3.935915732843486836e-01 1.773230049123839525e-01 9.169110199092944669e-02
4.284927835243044214e-01 6.433690008341308442e-02 1.974167593631770412e-01
-2.275002012474240942e-01 3.598058637796874848e-02 -1.670639347718529955e-01
3.005938520210085230e-01 -2.631562310773229996e-01 2.165326047255224928e-01
2.663862695472536402e-01 -1.461924273091650406e-01 1.261887717558569655e-01
3.983643045203981714e-01 4.705320638102197250e-01 1.929142642332739577e-01
2.484168731679945452e-01 -7.304130246090512202e-02 -4.822937300003626859e-02
3.049093077756062087e-01 2.334063094538354477e-01 -8.435425145954278392e-02
-3.590407381279172583e-01 -1.563257533627844253e-01 -7.240082141621639877e-02
-9.011419711737822524e-02 -2.340573031026220718e-01 -7.765502052370432118e-02
1.587729103684383247e-01 -2.660123238709239946e-01 2.324821945910706678e-01
-5.785915861351194067e-01 -1.062900978642797867e-01 -3.099857088788082748e-02
-3.657669553978148969e-01 2.888178866785668930e-01 -1.507426333115868822e-01
3.165965865231648024e-01 9.838664698789800767e-03 -2.001518325868967274e-02
3.433716287391481714e-01 -1.773678022939062515e-01 2.168202567412085280e-01
3.715088357703981714e-01 3.932113688868188461e-01 1.541205811812109694e-01
3.600607930370696153e-01 3.440549755631929774e-01 1.230334551305343194e-01
4.395743996080856419e-01 1.021741247990770596e-02 2.129519351635005275e-01
3.727939119117555933e-01 1.240842383783959946e-01 2.855127735074636242e-02
1.605389108436403589e-01 -3.381464439946508804e-01 2.183135915114111647e-01
3.505351533668337183e-01 5.507372659128808579e-01 2.194763589216894850e-01
3.467156877296266870e-01 5.373421352785729965e-01 2.195069957091040358e-01
3.946466095566707466e-01 2.336782769329963649e-01 1.162404159448742202e-01
-5.089597371186576069e-01 -1.285728855959953343e-01 2.839410274078990604e-02
1.670098207166770266e-02 -2.341514784413671890e-01 -9.522182910280729828e-03
-5.785362730247678442e-01 -1.183977085667944351e-01 1.643122914568850845e-02
-7.372934017908505666e-04 1.782429259699487289e-01 -1.697432146442023893e-01
5.449378480689821558e-01 4.014630359095239243e-01 1.435001063658423170e-01
8.758187196424582766e-02 1.762326202473942782e-01 -1.743669342683129564e-01
3.054012901902156685e-01 3.789189073553160814e-01 1.138394046141333327e-01
2.203618874328432398e-01 2.330733281057977280e-01 -1.331606042073540941e-01
4.169969548957643823e-01 3.732401770037316879e-01 1.445334720923132643e-01
5.018931447216399278e-01 2.898661109914855150e-01 1.821370973217399936e-01
3.721311877347126540e-01 1.750668924730920395e-01 8.319791983925073353e-03
-8.680093386003395750e-02 -3.063033181744909683e-01 9.299658420817324966e-02
4.123511781471069781e-01 4.005675357264184555e-01 1.580020833327002716e-01
4.161989679115114527e-01 4.106806558054589829e-01 1.657743621184057936e-01
4.151834637102584935e-01 5.145042580050134262e-01 1.950565743757910475e-01
1.620581140296755152e-01 -2.886515814381933609e-01 2.480528521849341139e-01
1.713754524963198023e-01 -2.459712881165838638e-01 2.293734717680639967e-01
2.294638147132692652e-01 4.622292957387272860e-01 1.178252466831233303e-01
-4.272232860150833034e-01 3.305777328033276952e-02 -1.095171999619775072e-01
2.743694772498903589e-01 -1.482937691925065860e-01 1.458784509016699538e-01
3.677795877235228161e-01 6.239719804941645798e-02 6.565791848437263489e-02
2.817717065589722125e-01 -1.346553761082982525e-01 1.416129279448217204e-01
-3.145756731254758520e-01 1.465938331367475644e-01 -1.497313213036828294e-01
-4.762536694430217210e-01 -2.108435192026789640e-01 1.114544951057694355e-02
4.178193400479450759e-01 1.471647860290510312e-01 1.564775872542090163e-01
2.972601642387209253e-01 -2.446105140763616959e-01 2.301982808424658522e-01
2.765757346613018086e-01 -1.000203023102550492e-01 1.126391516122637881e-02
3.673007478492555933e-01 2.378535684763427582e-02 1.077159810377783522e-01
3.658501410944072774e-01 3.439970089954025312e-02 9.362900226166392947e-02
2.072069635169802027e-01 -1.697121817189550796e-01 5.318416836993167252e-02
2.393959976941140155e-03 -4.085923391896582046e-01 1.643619307193782131e-01
-2.220332632286252661e-01 -2.075751680451727310e-01 -5.662844893200924545e-02
8.983111283948996828e-02 -1.958947140294409195e-01 4.767077000302766265e-03
2.472453107612428980e-01 -1.793001451410944913e-01 1.804150510145849928e-01
1.071631898658571558e-01 8.757674861143316392e-03 -1.538891095273733356e-01
5.512411584632692652e-01 2.702492516916894516e-01 1.667075324370093092e-01
5.472743501441774683e-01 4.215076011103295883e-01 1.325708794905371413e-01
-1.980491716061365537e-01 3.181268018168115219e-01 -1.667693345575760322e-01
3.911676397102175073e-01 3.955198269766473373e-01 1.572366524054236159e-01
1.672320952194032984e-01 1.203697067183160385e-01 -1.609892081902795091e-01
4.553582658546266870e-01 1.246601781926457431e-01 2.296813893629736647e-01
-4.291768878522415065e-01 1.204854291361474594e-01 -1.146904062913232103e-01
-6.952643492051979734e-02 -4.572955328542089859e-01 1.158403325392431960e-01
-3.363510209713709287e-01 2.874762201844698328e-01 -1.564760381523286892e-01
3.499491204994020777e-01 2.896987241190576157e-01 2.183415177599856705e-02
-4.778979430420102759e-01 2.621748488825463852e-01 -1.081750225709252611e-01
1.736624231117067652e-01 -2.207660633641577164e-01 1.982709932638830885e-01
2.783080568092168861e-01 -2.403172928410863829e-01 2.341972279860204953e-01
3.374676694648561792e-01 -1.094945925790167252e-01 1.692573893381781325e-01
-4.087207327110471411e-01 1.920070689600610336e-01 -1.330475639985375658e-01
-3.693335066063108130e-01 1.205037873667382797e-01 -1.425703000710778490e-01
1.403192442263829776e-01 -3.518903724952351375e-01 2.085022071741222671e-01
4.985539903419313745e-01 1.250077527445458969e-01 2.322137523009009108e-01
4.967973222511110620e-01 4.319840313674909726e-01 1.485783028914160475e-01
3.262498368995485620e-01 3.323408406656884750e-01 6.673743012682864517e-02
1.056058397071657495e-01 -1.787237483579016128e-01 -2.146722194417050034e-02
3.672843991466887559e-01 -7.739468569168983514e-02 1.738274775544148554e-01
3.569667329566774683e-01 2.574363477424967961e-01 8.274299448379318633e-03
2.596573819892702417e-01 -1.393391448575354019e-01 1.216234135939306960e-01
-3.208329687339963598e-01 -7.206612411321167144e-02 -1.380658578561120287e-01
3.907332675500478913e-01 3.162822632341155682e-01 1.191618212375666896e-01
-5.348414907676879437e-01 -7.325903955281742874e-02 1.607541325823724776e-02
4.662668695228395777e-01 2.070656261525456454e-01 1.834074624691035549e-01
4.509766773274925811e-01 2.053647593625007595e-01 1.695787222356368584e-01
3.434719234880905248e-01 2.637177151125573715e-01 -1.862621622148874501e-02
-3.071614116254348659e-01 -1.743590417684082183e-02 -1.589338016198449388e-01
4.329791059272585230e-01 -1.292219716626501480e-01 2.017916608168310866e-01
2.200843086021242456e-01 -1.822265047150946060e-01 1.210633385492987379e-01
4.730212678687868433e-01 6.564745721041198578e-02 2.478884327723211989e-01
-1.048772344810666723e-01 -2.575228172856665054e-01 -3.322897669537594467e-02
-3.189182379075905516e-02 -2.167287278491354385e-01 -7.635585781796505600e-02
-3.709301958305539770e-01 -1.667163330632543961e-01 -5.882899281247189194e-02
1.710720052497682886e-01 -2.719044047910070816e-01 2.502354351991045167e-01
3.220984926002321558e-01 4.351887744349145493e-01 1.993224191977209792e-01
2.068073739784059839e-01 4.982382100504541000e-01 1.703562903715796217e-01
4.453122606056032495e-01 3.162969717338315334e-01 1.489541481069533990e-01
4.267602978893645371e-01 3.387114393957069147e-02 1.998289139241744561e-01
1.632145395057493786e-01 -3.569117027837134248e-01 2.116268563582128781e-01
-3.942231346987590257e-01 -3.432649729965226992e-01 9.547859115537282726e-02
4.505436410682497339e-01 1.663256925028466782e-01 1.980560589148230299e-01
-5.394167909843625708e-01 -4.240864101232055816e-02 -3.838865277035763413e-02
4.633810510413942652e-01 3.416730604253117587e-01 1.554006107959773342e-01
-3.376684993329543971e-01 -3.907372512736018155e-01 9.282435658709475845e-02
-1.445945908449992601e-01 -2.743512350636816421e-01 1.230317039426442882e-02
3.861186494605837183e-01 4.822878580969476303e-01 2.006622124029822096e-01
4.156334986465273218e-01 9.383880016027923432e-02 1.486131716086096510e-01
2.695066919105348902e-01 -1.758983093816137711e-01 1.870070863081640944e-01
-2.724814512559792234e-02 -4.319579261857366959e-01 1.478184926821417555e-01
-8.099269964525124266e-02 -9.903990808309082183e-02 -1.723353695557885423e-01
4.183550467269716577e-01 1.188953113239907822e-01 1.519337016655630812e-01
2.618422498481569605e-01 9.238523658930297699e-02 -1.128663253472619310e-01
4.686028947608766870e-01 1.788480323237084946e-01 2.074415016485877672e-01
3.604546060340698688e-01 -1.526950183690556351e-02 1.237222719504065260e-01
8.266491792371866154e-02 -1.790203291493750459e-01 -4.711175677044909804e-02
4.180828455597591642e-01 3.829461087934538099e-02 1.716122264643802353e-01
4.729839315192991833e-01 2.331068199556969311e-01 1.778127599074073029e-01
2.243504514472780542e-01 -1.403602320271826187e-01 3.037171394986604156e-03
8.152374256694017163e-02 -3.833023810160798295e-01 1.746491902836335708e-01
4.547920217292604761e-01 2.328832786959313950e-01 1.674032676531500563e-01
1.425783624427614527e-01 -1.666055876332617203e-01 2.901630432767365875e-03
4.331972589271364527e-01 7.340693887888427582e-02 1.802804637266821608e-01
4.212263812797365503e-01 6.568195339857574311e-02 1.751798856569952711e-01
2.778534084734420873e-01 -1.923307735043859878e-01 2.303246426893896803e-01
3.020188003954391576e-01 -2.141113637207048281e-01 2.311028409315771803e-01
4.484790553825197534e-01 3.997283619326257309e-01 1.456200945688910231e-01
2.373692979591188745e-01 -1.487438637334204117e-01 3.846897366778323502e-02
4.261033525245485620e-01 3.225930970591210922e-01 1.387624907805151686e-01
1.900045861976442652e-01 5.053963702601098618e-01 1.331274676634497389e-01
-2.152869711143674536e-01 -2.872300106603002945e-01 5.923141721026370377e-02
4.469171037452515094e-01 1.782262724321985736e-01 1.724797177626318234e-01
4.154440750854311304e-01 -7.491018954099182281e-02 2.105639893128103957e-01
3.930902811918892681e-01 2.902275535574034837e-01 1.159597121277791132e-01
5.508205880897341089e-01 3.301030438822412094e-01 1.574076581312842116e-01
4.807352922132590578e-02 -1.230171082733171328e-01 -1.466351580308251634e-01
-5.823290357811155005e-01 -1.193985897618627945e-01 -3.096853014691403061e-02
3.293156614082155542e-01 -4.503245734354810459e-02 9.217693093554446548e-02
5.470054392643852736e-02 2.063433654503215031e-01 -1.683909044635383268e-01
3.840401692698831582e-01 2.344225951382090667e-01 9.060882544984028009e-02
-1.416044721824825103e-01 -4.133645731526709444e-01 1.552471328093236735e-01
-4.799538463178176784e-01 -2.478980181930559024e-01 -3.984914538128903061e-02
1.317238710096457766e-02 -1.166384178716040054e-01 -1.750027966187768236e-01
5.355554411984577712e-01 3.732844235183698789e-01 1.550088095976538405e-01
4.985625052911846211e-01 3.455252518508167281e-01 1.771558349784696507e-01
-8.459741826228217576e-02 -3.814950799406522375e-01 1.524235347650646499e-01
-1.992520818931762250e-01 -3.820036965924598071e-01 1.567356276823705930e-01
3.513481607215700464e-01 -1.796319443303442398e-01 2.213434148146338210e-01
4.300537099616823511e-01 2.874367874544763168e-01 1.370527315451330885e-01
2.970097055213747339e-01 3.382128518503808579e-01 -6.794081446393063217e-02
1.072030057685671167e-01 -3.822582322675085464e-01 1.788330245329565749e-01
2.719992389457521753e-01 1.234170239847802719e-01 -9.630416151745846420e-02
-8.703943758862831004e-02 1.217383528291231531e-01 -1.647329503837740017e-01
3.252422799842653589e-01 -2.409484742401140078e-01 2.169661291751887600e-01
4.806256196668723391e-02 -1.462669331151342789e-01 -1.248878669427209154e-01
2.764679694635479024e-01 5.132519133285869950e-01 2.149936298273205093e-01
2.526586045997438745e-01 3.018554490488671860e-01 -1.130030584023766771e-01
-5.710303793174924536e-01 -9.464108529866699371e-02 -3.791652437909176498e-02
3.392922868507204370e-01 3.173064273279808667e-01 6.673936131731927901e-02
-4.025665134015579127e-01 -3.259916661499040469e-01 7.633584423001882335e-02
4.406636432698753936e-01 1.517953403190959172e-01 1.723013942893827366e-01
4.722600238366689851e-01 2.611561657669050351e-01 1.722671887921254363e-01
4.010021676795778589e-01 -5.101531329930786285e-02 1.913983989073462233e-01
-5.719277868492307348e-01 -4.483508649648193511e-02 -7.328091379864742905e-02
2.883895140658765399e-02 6.610535002568407315e-02 -1.671769054419172118e-01
1.910297860877809839e-01 -3.209131119964616641e-01 2.316758402500178615e-01
1.213042726295290308e-01 -2.781239706593847671e-01 1.977631020857519850e-01
5.250579347389043861e-01 3.470268767756128359e-01 1.723246503187843004e-01
2.611773004310427027e-01 3.115052398859496918e-02 -8.569972035153439194e-02
-3.953796464596521787e-01 3.430264378129488367e-01 -1.528719837013399196e-01
3.328754097399215794e-01 -1.889381168602006777e-01 2.252262004528071682e-01
2.987822999732792084e-01 4.255559962671899843e-01 1.858328032805152130e-01
-5.792605886680783911e-01 1.249883216303491196e-01 -1.211103033707909837e-01
3.955350253019966900e-01 2.613125059118346361e-01 1.203252244307226881e-01
3.608335644182663060e-01 -1.300121371929607861e-01 2.056234579927682660e-01
-5.502629289848508520e-01 2.259364765566491684e-01 -8.477906700833370834e-02
-2.736576495795439712e-02 -2.501809952972429141e-01 1.959173196184327281e-04
-4.538358459694089575e-01 -1.599174398499823013e-01 6.053732664746735992e-03
2.928297509925661402e-01 -1.773496228772497574e-01 2.176736760451025710e-01
2.682304284742453859e-02 -1.698505837041235367e-01 -1.051010322259240404e-01
3.161636183835163649e-01 -5.124910258433179600e-02 8.319121284421560070e-02
-8.759113818066932566e-02 -4.096930155899791703e-01 1.525288646873319554e-01
1.596410264747438745e-01 -2.387414788664334875e-01 1.793304338085563998e-01
-4.229257797735126445e-01 2.632676744996553797e-01 -1.317729442148636299e-01
-3.699000487549009009e-01 6.590624567686553803e-02 -1.414197069094949022e-01
-2.580129156334107776e-01 -1.940487343388892505e-01 -6.841939207776115417e-02
-9.086752035447975828e-02 -1.029943981089289640e-01 -1.799471409803998778e-01
-1.142573366386594458e-01 -3.171512443143225113e-01 9.392480734126040787e-02
4.274942865150270777e-01 1.244601847412092344e-01 1.695476540241267482e-01
4.403003047085896071e-01 9.056359943567748871e-02 1.996250915838904127e-01
4.179051508682070093e-01 3.142447364014291367e-01 1.288988012386984572e-01
1.909455051200685816e-01 5.079545718115472397e-01 1.560149061991400465e-01
-1.166979595133277314e-01 -4.099725784038741327e-01 1.529418908158284296e-01
-5.830258856041137250e-01 -9.888462606252201859e-02 -4.538083788617175429e-02
5.467374315040407495e-01 3.653866690081262192e-01 1.590283680273718581e-01
-5.754820603359789288e-02 2.889232080858850082e-01 -1.596704752928388427e-01
4.689184020138874587e-01 1.006607628682298916e-02 2.298693824125952467e-01
-8.685988285371681883e-02 1.199014898954864350e-02 -1.683312189267449632e-01
1.743814935462770777e-01 -2.150771874505377212e-01 1.431073117567724928e-01
3.873401473141804274e-01 3.706733625811242661e-01 1.445718773517634670e-01
4.423048486488161402e-01 4.719971459787988266e-01 1.701516080214209303e-01
-5.090340555957428847e-01 1.784855849937785344e-01 -7.680726082274769162e-02
2.567912330406008081e-01 1.470185261648797592e-01 -1.146879326985650316e-01
-5.563920746071042700e-01 3.684744652925964203e-02 -1.299303751872353807e-01
-4.105668077690305395e-01 -1.394969183522558609e-01 -4.727510925992062241e-02
1.964419832008177380e-01 -1.916659313756323701e-01 9.279314759509027510e-02
-6.191625011478585350e-02 -2.943517439170491024e-01 6.777097466723391861e-02
3.651651849525272553e-01 4.052041572016382709e-01 1.690261054350561398e-01
-8.860540487596413328e-02 -2.060167748051977554e-01 -1.190882754014306322e-01
-1.671157687726516627e-01 -2.411074596959448257e-01 -2.276621577008297592e-02
5.260407827070334719e-02 1.237771403473519882e-01 -1.668908279822640672e-01
1.926237573402227454e-01 -2.155376631337500015e-01 2.037678170515722087e-01
2.782708529144954923e-01 5.698678005087942644e-01 2.080730234563641368e-01
2.421946427991983342e-02 -2.507090765553807721e-01 3.520328286425544739e-02
4.759085764663515405e-01 3.461834829729699692e-01 1.692541110827154860e-01
-3.727952736843676007e-02 1.796015939793889071e-01 -1.734741361624372313e-01
3.772819032447634058e-01 -1.379462439137792984e-01 2.194954324080176100e-01
-2.465612898094358130e-01 -1.782168704587316910e-01 -1.286108922646813646e-01
