1.797877759212154758e-01 -2.077885430564344327e-01 -6.868417231181307425e-01
1.299488334843551703e-02 1.706344780626778412e-01 4.110423534768152254e-01
2.171293702631252875e-01 -3.504963306473675155e-01 3.862270142276968410e-01
1.844938266655389014e-01 6.233011588377083134e-01 3.997448284643763117e-01
3.143995763911361374e-01 -5.643661892114023582e-01 -4.333440568789155845e-01
4.754775463166783234e-01 2.580914856763244503e-01 1.596071722181296726e-01
5.139479130650990157e-01 -4.514806762011008279e-01 -1.654262073784535936e-01
1.664097151009393538e-01 -1.734309775087790606e-01 -5.073795438140941139e-01
1.040920549653906596e-01 7.110716693835784641e-01 4.113100062586461103e-01
1.067551327068969880e-01 4.719683577623019488e-01 4.109593901061424637e-01
7.943607721947926886e-03 3.684790309408542686e-01 4.103772677848972483e-01
3.900632194757678861e-01 1.986838377006817646e-01 2.807457422714126904e-01
1.396259589850401828e-01 -4.670634031759053895e-01 -5.109058467354790078e-01
2.073035758829643027e-01 -8.233034783586604122e-02 3.902969250442740456e-01
4.204176525268817910e-01 -4.123793322563639729e-01 2.419060266729917974e-01
2.197134484727490955e-01 -5.643661892114023582e-01 -3.623437764675521700e-01
3.911125202864192962e-01 -3.629351115359290003e-01 2.799405659745364261e-01
1.818098657128634221e-01 4.606384926209050046e-01 4.008565316369283593e-01
1.655854014803005980e-01 -5.643661892114023582e-01 -2.546733265510297550e-01
7.399401056300401356e-05 9.735268320085938010e-01 4.093411847655993863e-01
1.476835066107896055e-01 -5.643661892114023582e-01 -4.011293620632870316e-01
4.793951677956874158e-01 3.338071534786894029e-02 1.501489583213252432e-01
3.549002678250242626e-01 -1.560718812819284484e-01 3.077292488872572229e-01
1.271450070478744310e-01 -5.643661892114023582e-01 -3.071510862564313590e-02
2.986266001405565307e-01 -5.643661892114023582e-01 -3.000155960490893947e-01
5.095603556436121284e-01 -5.811623825943933869e-02 7.732195516704502836e-02
2.996240338583794904e-01 1.000000000000000000e+00 3.346474158542337429e-01
1.934060955023681264e-03 -5.643661892114023582e-01 -1.022833990805927101e-01
2.589142767264149617e-02 -5.405353578485885130e-02 -8.802847889409618487e-01
5.043247015687448709e-01 -9.256952039822315126e-02 8.996226990835352877e-02
4.860287906331701713e-01 -4.445327936304157568e-01 -2.384063615743867159e-01
5.137593572251776264e-01 -4.574021867828702570e-01 6.258363825075351217e-02
2.126854261212379749e-02 1.154688232093552397e-01 -5.164057367481537097e-01
4.649696419691145000e-01 -6.114450619210165527e-02 -2.881172160179087949e-01
4.823430649630104927e-01 -2.433386770851949654e-01 1.430319869299572222e-01
2.959213138850509406e-01 -5.518611994768090057e-01 -4.572628342396904966e-01
2.193407414224217422e-02 -2.329315696363206678e-01 4.122192464366552511e-01
4.391685625242845031e-02 -1.981287725574001901e-02 4.151134931583481680e-01
7.297040274570286422e-02 5.549609592064976005e-02 4.154073417443582827e-01
4.860510900362700615e-01 -3.333324141422731035e-01 1.340797356994559708e-01
1.471621756394602687e-01 -5.116816913811179646e-01 -5.099136132144810318e-01
1.202777050487405797e-01 -5.643661892114023582e-01 -3.319122396335423830e-01
4.467556453731527655e-01 -2.790277999660551941e-02 2.075820600915662673e-01
2.853065732171247149e-01 5.059753671020856824e-01 3.579877874609467825e-01
5.600212444513585908e-02 -8.658655158250702644e-02 -5.209787328886985591e-01
1.220793859216439819e-01 -5.643661892114023582e-01 -1.629249576640805774e-01
3.357753226290416948e-01 -3.605334598276057068e-01 -4.266785734695306975e-01
3.537624587652410391e-01 -4.237632374834989779e-01 3.086023424521769920e-01
4.316028412989733054e-01 6.430088557735720300e-01 2.273293804291746101e-01
5.270981767907378934e-01 1.453597924649764894e-01 -3.868788330214163046e-02
1.929693007724366527e-01 3.009594056136161710e-01 3.962342610088885331e-01
4.943395743567571277e-01 -5.633113435222918408e-01 1.140690636073619230e-01
1.980502064788885325e-02 -1.498962354328416957e-01 -7.853467586927990185e-01
1.897348369909544058e-02 -5.643661892114023582e-01 2.350608592292199039e-01
4.882766843604416374e-01 -3.471950299021532849e-01 -2.329794691373165694e-01
4.755982748055041509e-01 -1.491108408645218097e-01 -2.635879025803258835e-01
4.317917268343706705e-01 -3.291508264763003955e-01 -3.313550243068886236e-01
4.277266415606685857e-01 -5.643661892114023582e-01 -2.732254708160414269e-01
5.287429376032520834e-01 -3.823977248439056065e-01 -5.117518937029820469e-02
5.281780793360197901e-01 -3.384492279842221674e-01 -4.688650312619817989e-02
4.729574440155447368e-01 -5.122288659819135281e-01 1.656913725311172092e-01
4.626285343391001170e-01 -5.643661892114023582e-01 -1.856585322404059601e-01
8.679881915639847678e-02 -1.127847685331376526e-01 -5.178608926896867137e-01
1.746238755708390544e-01 -3.130745753463304304e-01 4.020239833172301047e-01
5.158760321530251325e-01 8.126136651327932336e-02 4.651335161166642029e-02
4.971629665234389983e-01 4.596878084932002478e-02 1.072526546007867426e-01
3.922167004076567154e-01 7.086400153869446550e-01 2.786578707392358134e-01
3.236291015169025509e-01 -4.979706228737391244e-02 -4.359996640206603158e-01
3.595897963301557532e-01 -5.643661892114023582e-01 1.007643075789293463e-01
2.024007194187419922e-01 -5.643661892114023582e-01 1.924132208283297341e-01
5.089857264013655236e-01 2.950382846719546981e-01 7.870920882669246721e-02
1.017246691073280668e-01 3.549942911548747415e-01 4.116216584003569157e-01
4.247642677647202047e-01 6.347734901603520330e-02 2.362414687562432447e-01
6.284117215079436380e-02 -4.888792329295582051e-01 -5.210150893079998902e-01
5.028508129297153406e-01 -2.020359564476100211e-01 -1.977942180834730557e-01
3.065725690028020447e-03 2.430628197121609962e-02 -9.272196374493892890e-01
4.577992149521702969e-01 3.348542585469484467e-01 1.931899833696432145e-01
4.743553683920202074e-02 5.951593049027911753e-02 -5.198508746378255330e-01
4.847664466004297790e-01 7.323959459320882048e-02 1.371812110139348506e-01
2.234898553849501146e-01 -1.624043422882984478e-01 -4.878665770152467163e-01
4.853055286759068720e-01 -1.332465839255808915e-01 1.358796781780316765e-01
3.902349445593225608e-02 5.421121192994905469e-01 4.144692082537304034e-01
8.908668846012764153e-02 -3.182417726514662482e-01 -5.175596709139420604e-01
4.033643038954911053e-01 -5.122166145275049848e-02 2.641301393151216925e-01
1.318675950175478284e-01 -5.643661892114023582e-01 -2.066220092718071555e-01
3.546168795772962623e-01 -4.999881721297597115e-01 -4.122193887320959593e-01
3.894145586130148828e-01 -5.643661892114023582e-01 1.308870696135638056e-01
5.189160941920313297e-01 2.971677205835827548e-02 -1.277065235098916729e-01
1.410908920937305883e-02 -7.125154579939700639e-02 -5.154631673547587223e-01
3.029322582085884341e-01 -2.452446466316012263e-01 -4.518825337678337717e-01
3.587092396585533360e-01 -4.378280464870781263e-01 -4.090788894621922855e-01
1.360605946428354307e-01 -1.313487668491251370e-01 4.071011138128024509e-01
1.201014528445349255e-01 -9.346047746347566076e-02 4.092022930532808744e-01
4.436381048973008778e-01 -4.846211858854835297e-01 -3.159167189367035333e-01
4.216243079965044105e-01 -5.225387804328508745e-02 2.403335291143403607e-01
1.252001184491493280e-01 -5.643661892114023582e-01 -4.624310805758861109e-01
2.575277661825241537e-01 -5.643661892114023582e-01 -1.213927109038795138e-01
8.659828188315826791e-02 -5.241257174249784878e-01 -5.178872683277618849e-01
4.074897234412900859e-01 -5.643661892114023582e-01 2.092131235556709545e-01
2.460264444074806434e-01 -5.643661892114023582e-01 2.838013899147359687e-01
4.407767177726206603e-02 3.362875646701214416e-01 4.151346536134403187e-01
7.213681175662894907e-02 -5.643661892114023582e-01 -4.652969734866482243e-01
5.194457349879700869e-01 -2.886974913016835953e-01 -1.236855930774587720e-01
1.278041057696724936e-01 -5.577899633590490680e-01 -5.124622491604413632e-01
3.991357196380390659e-01 5.746559179080635432e-02 2.696409092785024275e-01
3.375357827734379312e-02 -1.610076623352707237e-01 -5.180495384465561015e-01
8.362079829340914039e-02 -5.643661892114023582e-01 3.091166374223266455e-01
4.115801053496915274e-01 -5.000399043471661642e-01 2.534232487616703833e-01
1.579316184163920833e-01 4.997242809336407410e-01 4.042216134705788333e-01
3.884698911575002467e-01 1.142693800985146446e-02 2.819684629024083455e-01
1.619743668215992416e-01 -2.209200740845767841e-01 -6.548393222166911665e-01
1.789137007629468534e-01 7.610554817088623913e-01 4.014592449392617168e-01
2.678852844345855355e-01 -5.643661892114023582e-01 -4.303905249161855684e-01
4.712170115703760986e-01 2.902407808984530102e-01 1.698932814273341751e-01
4.435687326709958356e-02 -5.643661892114023582e-01 -1.041882643344815423e-01
3.823787972118339318e-01 2.874509876980009815e-01 2.866426455817506214e-01
8.146467605117328759e-02 -1.994194032336061573e-01 -7.053864941934077093e-01
5.170195958974793671e-01 -1.743743261823899326e-01 3.783124086522358931e-02
3.177937613436173092e-01 8.080780891585217507e-01 3.362042079193040545e-01
3.533641566579901472e-01 -1.158078362689749091e-01 3.089080301030049380e-01
2.202536545100759746e-01 3.943109861900321311e-01 3.849328995400023157e-01
3.537350340961060713e-01 1.354688037314324689e-01 3.086234129903211443e-01
4.400199967720248018e-01 -1.306594335535676554e-01 2.163600522768754919e-01
4.622635914195510898e-01 -3.697525845597219862e-01 1.873719072503708394e-01
3.713545897489489156e-01 -5.643661892114023582e-01 -3.448212262154255470e-01
4.963439430165733079e-01 -2.465045629067460220e-01 -2.135032858632734398e-01
3.393347773775202969e-02 -5.052962093477536554e-01 4.137990272680933668e-01
2.701068924407298844e-01 -3.509228067316532695e-01 3.642835323802234848e-01
3.266420985545656630e-01 8.419921843187224697e-01 3.294140696476980379e-01
4.735969333496033995e-01 3.705252859122727949e-01 1.641474086172925451e-01
4.777547529689924466e-01 -1.595410269967118544e-01 1.541093502952585181e-01
2.093681289532974554e-01 -5.643661892114023582e-01 2.589332993894672974e-01
5.192943448198819034e-01 -8.628940604173755691e-02 -1.248349583383276118e-01
5.253790846345574028e-01 -4.938499617033500488e-01 -2.563582761639818589e-02
5.081637656075324028e-01 -5.539801223283561393e-01 -1.849675804397847567e-01
8.692278652862146793e-02 -5.643661892114023582e-01 1.237475590405679171e-01
2.507588183383262503e-01 -5.565130000589365439e-02 -4.765716895666153308e-01
1.167419233824223967e-01 9.748706707685231843e-01 4.096445645480957243e-01
5.208080366945521122e-01 -4.465959080295812123e-01 9.068405231128576216e-03
3.736790052445580768e-02 8.266974313559930509e-01 4.142512495718184140e-01
1.898376795002105349e-02 4.787991384943965367e-01 4.118308651659985387e-01
5.325548399065341797e-03 -2.553398921325527593e-01 -5.143067155144269709e-01
3.377570322179660467e-01 -4.170653839728400425e-01 -4.251577481836538164e-01
1.468984192587086679e-01 -4.667213591057761679e-01 4.056742517375682699e-01
2.719216112710908795e-01 -5.643661892114023582e-01 -1.883944352166999348e-01
3.397314609797075224e-02 -1.213344466013587808e-01 -8.226942425948017279e-01
3.613068803411646490e-01 3.985888449349791474e-01 3.028128898946793601e-01
2.180909570910188333e-01 6.325320132111613043e-03 3.858287420927619116e-01
4.030753108246721284e-01 -3.067235614763598184e-01 -3.687786528776753614e-01
2.266029000134028859e-01 -5.643661892114023582e-01 1.344886030480949290e-01
4.344710720503829893e-01 -3.426713681937353928e-01 2.235914429845525242e-01
1.995739403803526990e-01 -8.699681264383975210e-02 -4.977726672299569444e-01
1.867134340195906184e-01 -5.027229661303618258e-01 -5.030995270623954685e-01
1.961002076002863609e-02 -5.167818478382072561e-02 4.119132290903514404e-01
4.953749312232567405e-03 -5.643661892114023582e-01 3.469686153471487899e-01
3.463827350657072146e-01 2.666170959748019875e-01 3.142654317254418017e-01
1.426427625068345806e-01 8.115601529414987469e-01 4.062344942681374582e-01
5.133943243886806007e-01 4.157899798337055114e-02 6.535489357376299269e-02
3.519473652809301245e-01 3.599885332105642877e-01 3.099952758657054108e-01
2.382312744359470769e-01 2.476780615618543180e-01 3.774865473820127604e-01
2.318829430882579923e-01 8.344242344747432316e-01 3.801160786088422228e-01
2.660706037454841407e-03 1.596629600580413699e-01 -5.139558595833952914e-01
8.572212739546754279e-02 1.696784061409272737e-01 4.137284724362423338e-01
2.240983233719544832e-01 -2.705128975477124609e-01 -4.876145697823649483e-01
5.095665599130229095e-01 1.091043180506476307e-01 7.730698399520577468e-02
5.237291685836921173e-01 -2.535080441236008952e-01 -1.310952007205376697e-02
7.764492355023495940e-02 -5.643661892114023582e-01 -7.596975967770214222e-02
4.833034379121062263e-01 -1.525789447710786118e-02 -2.449860192569213446e-01
4.434470076026631596e-02 5.047605891348285745e-01 4.151698411124178367e-01
4.778046568751233014e-01 -4.667745299943504289e-01 1.539888915572766304e-01
5.795041583836122584e-02 2.639267659049776560e-01 4.169611066055131654e-01
3.013535863528420955e-01 -5.643661892114023582e-01 -3.763625180214477117e-01
9.869844746109698776e-04 -1.321787302513288409e-01 -8.082629920558738190e-01
1.127979712238121185e-01 -2.303995683257372973e-01 -5.676270160839026468e-01
1.669243697388809178e-01 -3.946761238695805085e-01 4.030377069887960961e-01
2.209023453451449404e-01 9.486355429107453663e-01 3.846642876440596326e-01
7.459763068999514246e-02 -3.134535752820808430e-01 4.151931595742615611e-01
1.371174784494334775e-01 -1.371625868995263176e-01 -5.112360817131064161e-01
2.451439695076545744e-01 -5.603009241038042765e-01 -4.788973614538925561e-01
5.693068937789902070e-03 -5.643661892114023582e-01 -2.085193018327330117e-01
1.836608435524987593e-01 -3.875016505899770425e-01 -5.043639092126234180e-01
1.263208432888156540e-01 -5.643661892114023582e-01 2.801659618661257733e-02
4.418306843258845151e-01 2.897423862419384877e-01 2.140003318386285158e-01
5.159293229308633544e-01 -4.096634208148383083e-01 -1.503830607688795284e-01
2.296873960108708757e-01 4.052219660064147744e-02 3.810254087037993620e-01
1.041640072564749553e-01 -5.643661892114023582e-01 -3.925658517712344309e-01
4.386664170093971804e-01 -2.927592496483102935e-01 2.181240429624158039e-01
2.055292297622479114e-01 -2.070132191862887050e-01 3.910318162601431613e-01
1.326812596719937655e-02 -3.803556510105682853e-01 4.110783202560086558e-01
1.485448959863135410e-01 -5.643661892114023582e-01 2.488828625009275597e-01
3.064632967559004495e-01 -1.572348371148310497e-01 -4.491727966234030367e-01
5.178011839816678563e-01 2.014024091852519016e-01 3.189706697994650758e-02
3.785201312783860184e-01 -2.635046207602985135e-01 2.896037305681112839e-01
3.204273388331060901e-01 -5.643661892114023582e-01 -8.632835131333008172e-02
3.634858888922660319e-02 -5.643661892114023582e-01 -4.698560924448876297e-01
5.143195997557468147e-01 -6.416271064942300970e-03 5.833029686029000266e-02
5.250247519148704134e-01 -3.757327209915766186e-01 -2.294579726973380862e-02
4.643424113122975871e-01 -2.536187019142525645e-01 -2.889346210197107911e-01
1.152198767246686989e-01 -3.332130943522989552e-01 -5.141190588439853437e-01
4.618139467350015903e-01 -4.605311766834320752e-01 1.879579259726952833e-01
5.276334823543996633e-01 -2.410060815929229994e-01 -4.275184461399388763e-02
5.221092847934534209e-01 -4.106971659934886554e-01 -8.107024061076036590e-04
3.797167460221504420e-01 -3.277804622167158621e-01 -3.929575899412825479e-01
2.363098991191196485e-01 1.557363019257599068e-01 3.782823723162986873e-01
1.857678524084381277e-01 1.119528363844816826e-01 3.992170759243451883e-01
1.025040454322762896e-02 5.818182446363644456e-01 4.106809472905535441e-01
3.858981165835921323e-01 -4.205927658976008066e-01 2.839420200213821910e-01
1.623020316731301205e-01 -2.161046918245844162e-01 -5.079203642838988619e-01
4.907418174340413275e-01 -4.832435383531123452e-01 -2.270281361011326215e-01
4.278136212216846479e-01 4.614835021257379655e-01 2.322674993231644835e-01
4.698452985565718110e-01 -5.643661892114023582e-01 1.588331671298877090e-01
2.549617612794450316e-01 5.719551646951063217e-01 3.705567081455563572e-01
1.006614573955156716e-01 -4.745835172035574590e-01 4.117616291160512421e-01
5.745212116761956589e-02 -5.643661892114023582e-01 -5.204352149104543024e-01
4.924011747644448378e-01 1.345308951063491909e-01 1.187489410267431600e-01
4.473324219548664021e-02 -5.643661892114023582e-01 3.894501212757921216e-02
4.710133989605409799e-02 -5.643661892114023582e-01 3.148856488603160031e-01
5.093319066511020621e-01 1.226045313150051462e-02 -1.821473653385982661e-01
5.255171970666600023e-01 -5.629876197600684751e-02 -7.758965096101989867e-02
1.116476150032457149e-01 -5.643661892114023582e-01 -2.401080248288164631e-01
3.955509407281488365e-01 3.998872456638608575e-01 2.743126342279331720e-01
3.592878851911431304e-01 -1.083915913024017935e-01 -4.086348196284177448e-01
2.177664699808479990e-03 -1.582751462306841439e-01 4.096181289653885726e-01
5.002595044711918154e-02 -1.945200984888292017e-01 -5.201919296215269384e-01
1.391469189515790739e-01 3.176370662501737940e-01 4.066947491525489955e-01
2.974551921145434652e-01 3.276394425300163671e-01 3.518116620548040752e-01
5.097574835659078873e-01 -3.039043354616011716e-01 7.684600977521036103e-02
4.422826368787655671e-01 -9.794571466278861882e-02 -3.176831673521554045e-01
2.293017783854288741e-02 -5.376274665002849229e-01 4.123504052914472306e-01
4.853869334861479201e-01 -1.981268770786593358e-01 -2.399559452974603657e-01
3.476168751490967823e-01 9.591877163690331054e-01 3.133183964569636326e-01
1.503318005074316399e-01 -1.917603675213196135e-01 -7.250388022893134998e-01
1.498492686991571843e-01 -5.370628480115804404e-01 4.052857505776475966e-01
1.929130727076309726e-01 -4.765083393367242626e-01 3.962574895537842590e-01
4.515158485993993054e-01 4.316260400461288116e-01 2.013784800439726297e-01
7.011579066537318439e-02 -5.643661892114023582e-01 -1.707613021047116042e-01
6.690288811469294328e-02 -3.413103852690571038e-01 -5.204803232460261109e-01
5.268810873059897038e-01 7.391201975600593388e-02 -3.703943964129961797e-02
1.339410205692799678e-03 -3.666529148070359762e-02 -8.934958664957536323e-01
4.700887636793951718e-01 -1.099616011588256947e-01 -2.768891218754711003e-01
2.240102497214046251e-01 -5.643661892114023582e-01 -1.663294906887152671e-03
4.549039491717335459e-01 -2.799593323243310672e-01 1.969631083132428462e-01
2.099633641627902392e-01 5.690968547802908173e-01 3.891952026529482134e-01
1.903112508869383990e-01 8.112582717748021421e-01 3.973352340923144710e-01
5.192585279022684519e-01 -2.554628385727621964e-01 -1.251070058109911842e-01
2.127043024881712652e-01 -5.643661892114023582e-01 -3.071972776706895503e-01
3.922875249903516881e-01 -2.135738294620088129e-01 2.785655560059727698e-01
4.282839468042703435e-01 -2.410927315584630859e-01 -3.359264169285277601e-01
2.108528076260850204e-01 -3.950223640639489719e-01 3.888267829447438206e-01
1.850457144130246423e-01 -5.432167639315712560e-01 -5.037902690568046848e-01
5.173323869871979674e-01 -4.944806391765063647e-01 -1.397302964715748108e-01
1.267456559095637147e-01 -2.308527797158901329e-01 -6.230243681794811472e-01
4.672253284985445898e-01 -3.820980616285925557e-01 -2.838021016841805744e-01
3.864798492647293915e-01 -5.643661892114023582e-01 6.352430440208289841e-02
4.123851617573037753e-01 -2.195974557243714764e-01 2.523740378679669161e-01
1.340425136484517388e-01 -2.310895909845626650e-01 -5.902200879359248420e-01
1.820998104047152066e-01 -5.436679671765524136e-01 4.007363726221063738e-01
1.771958811292603103e-02 -5.643661892114023582e-01 -3.830048328305688532e-01
5.221188159899395886e-01 7.378858251912208399e-02 -1.033909272031901666e-01
2.645321315827008357e-01 -5.590638467334473338e-01 3.665926595490717754e-01
2.885116778141545990e-01 7.017677229971976960e-01 3.566602536409183566e-01
1.819427404827460293e-01 -5.643661892114023582e-01 -3.377806692436854941e-01
5.145206840237538382e-01 -1.417108858516916980e-01 -1.610776364469965749e-01
4.989408044189687641e-01 -4.607762902836350927e-01 1.029604091441623653e-01
1.370178654572257737e-01 -5.643661892114023582e-01 3.019584990549401549e-01
3.661732155383476961e-01 7.257124264113078427e-01 2.990785491279766006e-01
1.563073212026231396e-01 -5.643661892114023582e-01 -5.022085999694588798e-01
4.729093983930055534e-01 -3.475637193612016174e-01 -2.700794866123106819e-01
5.012522063096271074e-02 1.000000000000000000e+00 4.092855561471135939e-01
1.031639734402394620e-01 4.324925397015297879e-01 4.114322333632716711e-01
9.564366833907293752e-02 8.744716845461625310e-01 4.124222789052020000e-01
8.541181838816723493e-02 -2.004549467512161398e-01 -5.180435140110412062e-01
5.146618536320879400e-01 -8.013550510790479198e-02 5.573172703588284010e-02
1.312456170091089724e-01 -5.643661892114023582e-01 -1.225770725902114305e-01
2.753293648887027850e-02 -2.187844938481698503e-02 -9.049825767667497578e-01
9.482287646556356031e-02 6.748508448398089499e-01 4.125302991320461965e-01
3.071417000948027318e-02 4.008219922827813697e-01 4.133752786645631394e-01
1.646468096109180920e-02 -4.291129961653573077e-01 4.114991315725713972e-01
3.409244765999488447e-01 -3.235158512354384119e-01 -4.227270533011318054e-01
2.892898640404777955e-01 -1.683297792434631235e-01 3.563378714100814970e-01
4.039630908244292162e-01 -1.185074277844415380e-01 2.633498400405208661e-01
3.210855308923452611e-01 2.941227203352707043e-01 3.336781411272876086e-01
1.900650582833595947e-01 -1.177091750925600144e-01 3.974371999113278098e-01
3.310855843176983004e-01 -2.317522788912010634e-01 3.260042391462677491e-01
3.946966398053576297e-01 -1.968972100931861910e-02 2.754259858778648762e-01
3.416596975112939361e-01 -2.288434056793028637e-01 -4.221628544248513526e-01
5.072130737165028158e-01 -5.289048032103015329e-01 8.298894084138913607e-02
5.251658915508884418e-01 -3.418083752993057445e-01 -8.025688923464020796e-02
1.571189790128331987e-01 -5.643661892114023582e-01 1.780026511874380768e-01
4.009782377914849483e-01 -5.643661892114023582e-01 -1.837254227618667080e-01
3.702487860751725590e-02 7.857044746042113337e-01 4.142061112639306986e-01
2.012814782087173626e-01 -2.772932948166202949e-01 3.927912511536523210e-01
3.536680459698584023e-01 -6.878311577103796148e-02 -4.129475361768663588e-01
1.285976902733378668e-01 1.443571201482986011e-01 4.080836662757341693e-01
3.589398166854990135e-01 1.013726331909299005e-01 3.046293321332100290e-01
3.808036920616910126e-01 -1.438000162211403310e-01 -3.921234304148396022e-01
3.520135441546459742e-01 9.074830539867077134e-03 3.099444727900947383e-01
1.938643940172964097e-01 7.129623230765115283e-01 3.958634435154045894e-01
2.329398718533300383e-01 -5.643661892114023582e-01 -1.896959905318400808e-01
4.267793839454241817e-02 -2.725822461886047710e-01 4.149503838147061141e-01
7.129518725023364922e-02 -5.643661892114023582e-01 3.886388565234582537e-01
1.782390838745426531e-01 4.206399873415047619e-01 4.015480828838694505e-01
9.560704086799189094e-03 7.652128595068363737e-02 -5.148642905088726129e-01
4.918349377706767167e-01 -1.753251979073154609e-01 1.201158734561463270e-01
3.992075632794778728e-01 8.732659582183357472e-01 2.695472757633356475e-01
8.296516324737819581e-02 5.462121822659582460e-01 4.140914971275677092e-01
7.227666632959879600e-02 -5.354051391585566977e-01 4.154986973635094727e-01
1.748878642370396141e-01 5.958655198350868432e-01 4.019892454029924678e-01
2.085175882552277662e-02 -4.941659898031960929e-01 -5.163508574375678117e-01
4.278170442578512617e-02 -4.733761723706670366e-01 4.149640511907995988e-01
2.127868462464201360e-01 -5.643661892114023582e-01 -2.666341688887429173e-01
2.518747775797494648e-01 -2.309530970575237319e-01 3.718353571181977069e-01
2.258553754663420454e-01 -3.083256117385818618e-01 -4.868867820053864870e-01
1.443565870284791164e-01 -1.719107816415380019e-01 4.060089226179628419e-01
8.513891295795832093e-02 -7.010410064002156605e-02 -5.180794208456026562e-01
5.278440378742610406e-01 -2.086881920933253420e-01 -4.435031318445457199e-02
3.882497145242046477e-01 8.980636737456493268e-01 2.821373868753533354e-01
2.604599578562660778e-01 4.748009514299941780e-01 3.682793216593462371e-01
3.192078851845538412e-01 -1.041413970051177085e-01 -4.393925301912376957e-01
2.787552843316788986e-01 -4.700174746403233406e-01 -4.649754304806592575e-01
4.429094778954745792e-01 -5.643661892114023582e-01 -1.335150646861383017e-01
5.082896193623932524e-01 -3.280345974840332413e-01 -1.846638035241014997e-01
3.697865280930646148e-01 8.556843774898579280e-01 2.963057502306934432e-01
4.543827905412212154e-01 4.287438649449484829e-02 1.976422809936781988e-01
5.152429743263510498e-02 -2.284099460453903885e-01 -6.306716247715818957e-01
5.286827232204190929e-01 -2.545069986662147621e-02 -5.071805160675008778e-02
2.972333520177101729e-01 -5.643661892114023582e-01 1.037777841736483714e-01
4.624840378036906285e-01 -1.710637939638494365e-01 1.870846525738795452e-01
5.217126011912661676e-01 1.408954337936583201e-01 2.200833481150778637e-03
4.702683877691501979e-01 1.426594029365965133e-01 1.721834660924739246e-01
5.140928591852483853e-01 2.453843551495852038e-01 6.005156200938015221e-02
4.686142456217297081e-01 -4.509287060297461069e-01 -2.804489488322958746e-01
1.494076790745312300e-01 9.262855465414385758e-01 4.053438968706769008e-01
2.519615174622375497e-01 1.841934218099807730e-01 3.717994502836363124e-01
3.880897135074112131e-02 -5.643661892114023582e-01 -2.191811140229285582e-01
5.981470846959936749e-02 -5.643661892114023582e-01 2.430277405990859674e-01
1.289806315686415905e-01 -5.643661892114023582e-01 1.154444931883495257e-01
2.551592938280067835e-01 -5.643661892114023582e-01 2.387481434598112684e-01
3.880366113574837406e-01 -1.857646454851478168e-01 -3.865728572158181331e-01
2.381501543627079498e-01 9.772134868205493152e-01 3.775201163759265843e-01
1.772086056783357400e-01 9.027148376863078916e-01 4.016836776414285382e-01
3.510659993567958881e-01 -4.844249271603515705e-01 3.106715712038052857e-01
5.046493916679132274e-01 -5.906068092258403429e-02 -1.934520612276388607e-01
2.669294373052049640e-01 7.026048875185648968e-02 3.655996767201739606e-01
3.652895717181978141e-01 -5.633446127930458180e-01 -4.040291236911228712e-01
1.491203045087759471e-01 -3.761143285188185970e-01 -5.096558512969283639e-01
5.122825312991805546e-01 -4.099481578167860629e-01 7.074992543893099395e-02
1.014586123513238902e-01 -4.571136133244751987e-01 -5.159307954289048537e-01
3.817139462509686748e-02 -1.967863952181213294e-01 -7.110151752479109133e-01
1.669315481085615893e-01 3.804561632323104625e-01 4.030367478746842425e-01
3.867311971066592635e-01 -5.027599519682990348e-01 2.833027105212194696e-01
2.310524701566823713e-01 -5.643661892114023582e-01 -1.516005062722601271e-01
4.332485312532833310e-01 -5.643661892114023582e-01 -2.155668573402577948e-01
2.510245828642495014e-01 4.351451795839910153e-01 3.721875018588171047e-01
3.479566413232104138e-01 4.759371120123976895e-01 3.130576972524434232e-01
3.205761214097027634e-01 6.995140446129393119e-01 3.340690400724878328e-01
5.278033354691404888e-01 -2.894194644493591206e-01 -6.023257973876867261e-02
4.470704146357269981e-01 -2.939864960990210552e-01 -3.114436804700003725e-01
4.641779219411840129e-02 -1.422151400959831558e-01 -7.955979501538699150e-01
1.431320605654448075e-01 -3.301910756475215369e-01 4.061701137333812994e-01
1.538485722323303106e-01 -5.643661892114023582e-01 -8.153448168314277045e-02
1.389114176707955360e-02 6.619822087585791603e-02 4.111603245125695638e-01
3.965417056056630418e-01 -3.158815426838473273e-01 2.730214568272061326e-01
2.588366109625942282e-02 -2.275771952177992052e-01 -6.109395903151307872e-01
3.251149491100138733e-01 -3.092008633102532600e-01 3.305860471477150009e-01
2.320395184670132616e-01 -5.643661892114023582e-01 2.160056895848725123e-01
3.338473833750114639e-01 4.224858923666580113e-01 3.238848966822966413e-01
5.224607401708049048e-01 -1.531452344866454929e-01 -1.007947781116169950e-01
3.459121397322775793e-01 -5.643661892114023582e-01 -1.698103854213121044e-01
4.998651506442391979e-01 -2.997883467295576164e-03 1.007288353429498656e-01
3.014932873176924821e-01 -3.481932279140341202e-01 3.487129441933967122e-01
1.615791518628957590e-01 8.479303073268776303e-02 4.037413970237149763e-01
3.188427624311088171e-01 -5.643661892114023582e-01 3.141189570171766809e-01
4.675127167495220920e-02 4.674638183914885392e-01 4.154866484924796821e-01
5.007485846581770650e-01 3.315828102284647527e-01 9.859591541983325769e-02
4.971249915990739732e-01 -2.190789346576666463e-01 1.073443998600459026e-01
3.443393124781501946e-01 -5.643661892114023582e-01 -6.570595174486730528e-02
2.140310720141418155e-01 3.427709213013657163e-01 3.875103988262653676e-01
4.685279553239815598e-01 -5.586441144202602960e-01 -2.806573163730896603e-01
4.818976463750161976e-01 -1.109275789310124466e-01 -2.483799044862425864e-01
2.396802560803851789e-01 -2.950807553836642949e-01 3.768863817265388771e-01
4.304819366254110102e-01 -1.565579123580952692e-01 2.287901411937985630e-01
4.560480524178756045e-01 9.411762804478869537e-02 1.954721054817804282e-01
8.369212865893654874e-02 -6.172853175541248572e-02 -8.747050227061616834e-01
5.124302348724014688e-01 -1.675378507102564529e-01 -1.746673917351418415e-01
2.622890933706204519e-01 -4.134582756875339604e-01 -4.717957808467876935e-01
1.082416084177084507e-02 5.079958908402228968e-01 4.107565374714916562e-01
3.591096098556078586e-01 -1.823779236393492931e-01 -4.087716432509326259e-01
1.016890245305316076e-01 -5.112134638606518067e-01 4.116263340816520566e-01
2.472200169611716292e-01 -4.081326746923671922e-01 3.737633563168599182e-01
3.434745811893928913e-01 -4.608109455037579655e-02 3.164971404020763268e-01
3.280882927736162857e-01 -5.362993332339366370e-01 -4.325776647589362200e-01
2.524879212480489743e-01 -1.107012280006219734e-01 3.715813717124603621e-01
2.929611280681701513e-01 7.844835223398592960e-01 3.548172559304165752e-01
2.154965384323768995e-01 7.960097960679682894e-01 3.869033695104287518e-01
3.688241769711132489e-01 7.865741513251076622e-01 2.970442680967979032e-01
3.109669369572340414e-01 -3.914413916381900838e-01 3.414430090873507573e-01
1.707609610615988815e-01 5.391217813327192632e-01 4.025325835473407832e-01
4.414890898404951747e-01 -4.805668978683726861e-02 -3.187173021709136522e-01
3.374006314084754821e-01 -5.643661892114023582e-01 -2.886805307108674112e-01
5.631093366584285359e-02 -1.155104059912034908e-01 4.167453059303527496e-01
4.556646465516739908e-01 1.786797070665535336e-01 1.959717439894087532e-01
4.648348264917712691e-01 4.815315946543511361e-01 1.840210622668177198e-01
5.050725408251236503e-01 2.101065945424246961e-01 8.815675257900283668e-02
4.218700809876592683e-01 -3.687370026045643234e-01 -3.442850514545999774e-01
7.641707577993452072e-02 -2.389032838473808540e-01 -5.868886650131360794e-01
4.906125468351570373e-01 -3.992481608960135042e-01 -2.273401628967933741e-01
4.637305864259018695e-01 -6.566624967229590937e-02 1.854601530469776327e-01
2.938261590800874123e-01 3.672262031184421738e-01 3.544589668650183212e-01
4.050082554554734204e-01 -5.089216007458163826e-01 -3.662595996076016269e-01
1.598630269659986614e-01 -3.429229330647104446e-02 4.039673882863135113e-01
5.029472938149015526e-01 -4.915103227168193811e-01 9.328769836794331693e-02
8.479297248674980136e-02 8.092403556281564381e-01 4.138508194301318555e-01
2.004324074550671853e-01 8.636294989583119808e-01 3.931429762818478002e-01
3.479276880659597504e-01 8.744930847797826035e-01 3.130799367109113884e-01
3.110650663198000210e-01 -4.389704113388924744e-01 -4.456413984082990276e-01
5.216420463594151347e-01 -5.643661892114023582e-01 -7.170634196925523840e-02
4.167687053340511649e-02 -2.404120602622280001e-01 -5.377588838597994192e-01
4.052888562778139692e-01 -5.643661892114023582e-01 1.788508677300824357e-01
8.892471993776311645e-02 5.113834519108693133e-01 4.133068818394636801e-01
1.378470632644358471e-02 2.561488749736149373e-01 4.111462974686841410e-01
2.471156233845627770e-01 -4.926927905274344210e-01 3.738066363411560178e-01
4.768784523662612518e-01 -8.599506291251356183e-02 1.562249761920463109e-01
4.152311530502455494e-01 5.023095430497463987e-01 2.486651435975434921e-01
5.666535864406500173e-02 -5.278836464043689114e-01 -5.210660722175065596e-01
2.342267482267119116e-01 -3.502050596805329485e-01 -4.834193447126147736e-01
3.260019798018711223e-01 -4.931543641937496947e-01 3.299053159068479069e-01
8.818627008170360979e-03 -1.949572147452929838e-01 -7.149377121867430684e-01
1.385834169316454700e-01 6.519483387974596145e-01 4.067689606069513908e-01
3.066357424759748040e-01 2.275647867390321044e-01 3.447666691802968586e-01
8.548504450268129551e-02 -1.509148745642307499e-01 -7.846164532412770454e-01
5.044071110239056743e-02 -1.438019239835811817e-03 -5.202465391812689521e-01
4.836713636494307383e-02 8.848663912195398051e-02 4.156993919914086510e-01
2.662437006875667533e-01 -5.643661892114023582e-01 3.216817216504889165e-01
2.786807431818005831e-01 2.571015528008249035e-02 3.607322025749831740e-01
2.983019549998620623e-01 -4.690754447486161771e-01 3.511619221886753128e-01
3.254580821222016751e-02 1.370143064192771432e-01 4.136163759744229118e-01
4.943580672757257322e-01 -5.643661892114023582e-01 -8.393257979875096142e-02
4.588920355656457284e-01 2.736801921281699079e-01 1.917658188028485422e-01
2.033806493040241636e-01 -4.653808967517713245e-03 -4.961959136024342576e-01
1.444150929893003588e-01 8.698971897898178929e-01 4.060011897604363096e-01
9.341113917028810720e-02 -5.643661892114023582e-01 -3.841277490670710892e-02
9.534696863650388154e-02 5.561150432338658051e-02 -5.167354621964092010e-01
1.015763773274057785e-01 -4.030225147045689571e-01 -5.159152997415357156e-01
8.154187537082636938e-02 7.498618407436604683e-01 4.142788840471653411e-01
1.489181037719980727e-01 -5.643661892114023582e-01 3.453498105602858526e-01
3.021547463593751148e-01 1.430687395393077654e-01 3.482052731050818695e-01
1.790179731493559551e-02 -5.643661892114023582e-01 -5.093766891457556234e-01
4.709261901882814683e-01 2.195449517798827577e-01 1.705953829295053237e-01
9.811371687249569040e-02 -5.643661892114023582e-01 -2.936488317270637416e-01
5.235292532360088513e-01 -2.254046518929378740e-01 -9.268258111914340347e-02
3.327783607804356558e-01 -5.643661892114023582e-01 1.943338768095733138e-01
3.204042002051583071e-01 9.599436181784143374e-01 3.342009782074956692e-01
3.722974288931878983e-01 -3.257429142030937586e-01 2.943789199523549893e-01
2.975887187822989777e-01 -5.643661892114023582e-01 3.462889359120879980e-04
1.479080966676153963e-01 1.872021552856936444e-01 4.055413544884486909e-01
4.145137656669171666e-01 -5.643661892114023582e-01 -3.348346412708014253e-02
2.512607797004441368e-01 -2.298183451739719552e-01 -4.763637716105614817e-01
6.604265314165223832e-02 -4.341280839668210656e-01 4.163193993200708931e-01
3.180127690565891507e-01 6.420541176198831801e-01 3.360360931988908839e-01
4.411899061822380785e-01 -2.034736085566022090e-01 2.148354205068672695e-01
5.239118198773625723e-01 -3.365377735039888907e-01 -1.449621924385530690e-02
2.600896648783120324e-01 -5.643661892114023582e-01 -3.268512342439750529e-01
2.916819246076828853e-01 -5.643661892114023582e-01 2.512973723328124631e-01
4.018247459121176424e-01 -1.034130397541353635e-01 -3.704083376152443319e-01
1.192191278062888354e-01 -2.783832081154442584e-01 -5.135925351689100138e-01
2.236373341658010605e-01 -5.643661892114023582e-01 -3.965953898781670039e-01
2.785663088793335906e-01 -2.140590512856437866e-01 -4.650537481423528408e-01
2.172600795331773027e-01 -5.643661892114023582e-01 -6.118811590537082817e-02
1.615818119059402591e-01 -1.222160822763369986e-01 -8.227058718534075998e-01
8.537654284551146611e-02 -2.371853006668921127e-01 -5.485623751877010124e-01
5.287867871015520249e-01 -1.289831418646272543e-01 -5.276610491712827034e-02
1.829481768089395444e-01 -5.643661892114023582e-01 3.296999455976535875e-01
1.950749758603142758e-01 9.301324932993326744e-01 3.953620366411325637e-01
3.987643626428671872e-01 4.637329843857571632e-01 2.701248722648656453e-01
3.651225959457924941e-01 -3.960295537706281510e-01 2.998847744559126616e-01
3.719191782653373246e-01 -5.643661892114023582e-01 2.663476111416587799e-01
5.146418620973196578e-01 -7.228571059047124436e-02 -1.601575687698343908e-01
4.089391121575978311e-02 -3.348141855004092005e-01 4.147154608019412159e-01
1.016964651579772422e-01 -2.318377599364173924e-01 4.116253749675402585e-01
4.067793445324292129e-02 -3.539530078786972123e-01 -5.189611764098448488e-01
2.216120598155786880e-01 -5.079955760708503298e-01 -4.886443885876199933e-01
5.187515162049055606e-01 8.642794590964356094e-03 2.468198870524947880e-02
2.103368491923977013e-01 -5.643661892114023582e-01 4.727427378397678487e-02
5.653564876342442869e-02 -5.643661892114023582e-01 -2.743558467414579649e-01
4.301263450684522649e-01 1.169173159303886905e-01 2.292535431713895455e-01
5.165893364841639065e-03 -5.643661892114023582e-01 6.956387593655463664e-02
5.129835206514544305e-02 1.723840523344705861e-02 4.160853155321538321e-01
1.029864848779990238e-01 -1.848376916683859283e-01 -7.405694373789196705e-01
1.462033987161912019e-01 -3.280224958912046629e-02 -5.100398566094499486e-01
3.093824804445007848e-01 -3.988383194471047388e-01 -4.469326057813420849e-01
5.145516753984922254e-01 -2.439125869918576661e-01 5.656831431992132703e-02
2.759136689968723632e-01 1.104328428303736065e-01 3.618784038832448258e-01
3.931042706012018439e-01 6.344618901999483640e-01 2.775011491480600667e-01
3.393192492722313935e-01 9.059353030952849162e-01 3.196858651284151809e-01
4.840668028281701618e-01 -3.070183092318497509e-01 -2.431430215464195355e-01
4.922006899427576188e-01 2.713169199704775769e-01 1.192329189992643590e-01
2.010162681706400278e-01 -4.117976295475426762e-01 -4.971752290552385323e-01
3.593459115949084737e-01 -3.658638264210155588e-01 3.043177099638152416e-01
4.664467975905874364e-01 -5.643661892114023582e-01 8.331856138653864763e-02
4.506098154592015348e-01 -5.643661892114023582e-01 3.071635254981717328e-02
5.240497524755692860e-01 -2.556668601277367614e-01 -8.873072329387213242e-02
4.261401769027637343e-01 3.082619505994641518e-01 2.344483749518722904e-01
2.900937964862402851e-01 -1.221305113141726989e-01 -4.602790083428490164e-01
5.107695587600942222e-01 -1.090343626050618436e-01 -1.786766235979881656e-01
8.417808293104363238e-02 -1.348404817178524284e-01 4.139318046279490404e-01
2.630929958440669236e-01 -3.655845144082628395e-01 -4.714628183884048140e-01
3.509526140853886922e-01 1.804519326459133322e-01 3.107586407817693464e-01
3.605299679382712452e-01 -5.643661892114023582e-01 2.393825223839364611e-03
6.407060634641403851e-02 -5.643661892114023582e-01 -2.406887684235259062e-01
4.228446907868524396e-01 -1.567798573580345411e-01 -3.430149146197010168e-01
3.628901079889421122e-01 6.690786563363241291e-01 3.015979620658423288e-01
5.213851836113422289e-01 -2.180869708875126656e-01 4.686812300524600267e-03
2.586070393091701169e-01 6.030410721180661238e-01 3.690468227550174340e-01
5.335767777624218083e-02 -4.174503483994734254e-01 -5.206305744661064994e-01
2.669476155148556296e-01 -3.093963127828533444e-01 -4.698662230876937684e-01
5.159003097289807105e-01 -3.579429825285170286e-01 4.632897690982624994e-02
1.729248573732958261e-01 -5.643661892114023582e-01 -4.324739305732792638e-01
3.765228061128285120e-01 -4.623268181346625871e-01 -3.954086659986807417e-01
3.300961082497718690e-01 -1.937455239265833129e-01 3.267635577996724217e-01
4.107522874136851354e-02 -5.643661892114023582e-01 8.545377419182884071e-02
1.535448702474370430e-01 9.753645545914806370e-01 4.047991799997928686e-01
3.745557230141094984e-01 9.571973747531022925e-01 2.926459805861850172e-01
3.146233497023511183e-01 -4.772116097592192241e-01 -4.429107405873041192e-01
1.480321895489116191e-01 2.730163280783745247e-02 -5.097990889950660964e-01
4.112278706921241311e-01 6.239914017685284711e-03 2.538822448088101646e-01
4.632319113512588932e-02 -2.003483352232237058e-01 4.154303005384100689e-01
4.922097116098719249e-01 -1.365459064979394621e-01 -2.234842019648639599e-01
5.188864215991967344e-01 -2.797011280448716275e-02 -1.279320164827368045e-01
1.760482424507666677e-01 -2.344063574448300435e-01 -5.412569528595175816e-01
5.233768440091767227e-01 -7.102520985516454222e-02 -1.043437847335965639e-02
1.015227518066163549e-02 -5.643661892114023582e-01 -4.539446291082553930e-01
4.506630762647237942e-01 2.079706324292346364e-01 2.024898535210486739e-01
3.745397177973684433e-01 5.754282967279170657e-01 2.926582092911107491e-01
4.925605975132195669e-01 -6.074481037215699597e-02 1.183640515308997943e-01
1.182727968872364921e-01 -1.479614325184487322e-01 -7.887629433252201228e-01
2.121646659248483113e-01 -5.605748710719939965e-01 3.882834448003955052e-01
2.768022582491612704e-01 -7.362446904283957705e-02 -4.657843832893507896e-01
4.786793389727907466e-01 -4.924667393202039056e-01 -2.561495530307068558e-01
2.874045903782657674e-01 -5.643661892114023582e-01 1.741412278009186743e-01
2.578738415291546571e-01 5.351667244310330807e-01 3.693505322329896923e-01
4.118986511240810278e-01 2.471738822483528220e-01 2.530080422681985630e-01
4.844355734101517263e-02 -5.643661892114023582e-01 -2.020231879057223651e-02
1.842307071965021970e-01 9.916820229205743908e-01 3.998537478607003259e-01
3.751440196324495324e-01 -2.614840071052133008e-01 -3.964667187256026293e-01
1.527559764112248197e-01 -7.736263127983161736e-02 -5.091771634381802025e-01
5.157104950517875652e-01 -2.250025133292396506e-01 -1.520442951155721867e-01
3.519641198055710740e-01 3.200115930125220776e-01 3.099824177421437454e-01
1.293470731039903510e-01 5.576654734046204709e-01 4.079849974114802547e-01
5.246503077711510699e-01 1.364661280161415420e-02 -2.010287064610248586e-02
4.529402529447218995e-01 -4.176247872785613935e-01 -3.037940410787780543e-01
4.748747430973969119e-01 -5.643661892114023582e-01 -1.126820081124764970e-02
4.756496173828027030e-01 -1.998858923597445769e-01 1.591917559184458930e-01
2.169133148232789132e-01 1.005491025970465246e-01 3.863165415355724330e-01
1.190310052640135979e-02 -5.643661892114023582e-01 -3.384688486050772549e-01
4.413024222564814747e-01 5.386861636920552421e-01 2.146887659647061797e-01
4.183636197394627332e-01 -6.787850631584996242e-02 -3.488547056819114034e-01
4.635823433509930758e-01 -4.079760993136119507e-01 1.856533246235621826e-01
3.209972324494254625e-01 -1.503364688101689051e-01 3.337459085337511344e-01
2.853434391657979630e-01 -2.073582604880173930e-01 3.579725315521055662e-01
1.136152900552056394e-01 5.628528198694294354e-02 4.100561443913322002e-01
4.572233868172839721e-01 -3.272591537246235527e-01 -2.982121917680163325e-01
1.333045352840351583e-01 3.830197703501100892e-01 4.074639586702318850e-01
4.483829622977581475e-01 -5.139903989375422810e-01 2.054613688733754051e-01
4.406154567738875261e-01 -4.458834660783919102e-01 2.155840690157778961e-01
2.687596580150783399e-02 -2.870704741002381710e-01 -5.171440148357302480e-01
4.560865968162445272e-01 -5.643661892114023582e-01 -7.729686451895786958e-02
2.499047272217469751e-01 3.971777482979580443e-01 3.726513534211479683e-01
5.277389249620683120e-01 3.139323608811564470e-02 -6.072181035966789375e-02
3.036610650443106740e-01 4.496303203470770060e-01 3.470493907387539601e-01
4.170659083738488815e-01 1.819390915278494281e-01 2.462740721167662739e-01
4.779556574031035843e-01 -6.689169002072224354e-03 1.536243382778355315e-01
4.795224302494000557e-01 1.945608946174918197e-01 1.498417270962236203e-01
6.300284305742741287e-02 -2.840137774258550962e-01 -5.209937789913278161e-01
3.038337505429130059e-01 -1.102784385112035581e-01 3.469168531574262637e-01
7.261596137637039983e-02 9.393196075979668436e-01 4.154540386126777118e-01
3.153760145016049621e-01 4.239972241916895035e-02 3.380594942793636037e-01
3.816108465314228537e-01 1.603943107940836443e-01 2.872319612588344895e-01
4.194110622665225274e-01 -3.691394109191065143e-01 2.432178549994390704e-01
1.866938083447574476e-02 7.521958449347840858e-01 4.117893834806621300e-01
2.579011762813416264e-01 3.119275049009594958e-01 3.693392026975437781e-01
2.642848300034302267e-01 -4.402338044026926633e-01 3.666950449805089773e-01
4.492188901908447662e-01 1.467691853631602483e-01 2.043719351316073130e-01
2.891463865638121411e-01 9.655040222970819874e-01 3.563972765403826126e-01
5.238193253102035873e-01 -1.629556230963852825e-01 -1.379390793547218171e-02
4.099114266290136976e-01 6.984216136395717811e-01 2.555978901486513633e-01
2.523084620060319083e-01 6.847478234704568179e-01 3.716557030561267183e-01
6.126029288080679647e-02 -1.756488689477400666e-01 -7.521646474338159472e-01
4.322174835830725481e-01 -5.614239867841182008e-01 -3.308001917793564339e-01
4.550215905120119642e-01 -5.617042279386668113e-01 1.968097999169309831e-01
1.592419106616446423e-01 -5.643661892114023582e-01 -2.836442225096795777e-01
7.831057684288707244e-02 -5.655165339221044501e-02 4.147043111003912430e-01
1.853159747863470375e-01 5.328560791398518313e-03 3.994042530377308053e-01
4.889825623744281091e-01 -5.103834105415001599e-01 1.270023877098326592e-01
3.315774924134037155e-02 2.073930883792576285e-01 4.136969415598161226e-01
2.563178437304581836e-01 7.759468672429378211e-01 3.699950269438194161e-01
1.442602784841097718e-01 7.367062719180904606e-01 4.060215709353125479e-01
1.035304187221277178e-01 -1.626180221518564242e-02 -5.156580773256709271e-01
2.025675753018833791e-01 -5.643661892114023582e-01 -4.880207845810384248e-01
5.806975026325524730e-02 -1.056278140722329562e-01 -8.408823431097441903e-01
1.028760406400987953e-01 -2.220912423320618723e-01 -6.510140154709450622e-01
5.162639338666259459e-01 -4.932680791606328663e-01 4.356825685588884556e-02
5.205095423995629300e-01 -3.022287031636126109e-01 1.133475441197370065e-02
1.539637183773021889e-01 -3.443436435923325489e-01 -5.090181603018293366e-01
1.197093662463133701e-01 -9.538634862770226097e-02 -8.490711395072335632e-01
4.246616125824390631e-01 -5.643661892114023582e-01 1.007297644847456874e-01
7.838745957995245373e-02 -5.643661892114023582e-01 9.252842467301264362e-02
4.306077903802719153e-01 3.563056503900489252e-03 2.286261326806766636e-01
2.892006064834461987e-01 2.477212966276763628e-01 3.563748572480187615e-01
2.723179801639601383e-01 -5.643661892114023582e-01 -5.960301498784369850e-02
4.287165372410189912e-01 -5.643661892114023582e-01 6.532525095324442921e-02
4.177990911677063046e-01 -4.646903750293568391e-01 -3.495904061503123939e-01
6.609461259703243788e-03 -5.643661892114023582e-01 4.014706044470236490e-01
4.966020046572859337e-01 -2.925939822979166105e-01 -2.128802213583797787e-01
2.330398145410136901e-01 -1.614060243871536238e-01 3.796368812207221444e-01
4.907082484401274480e-01 -3.673277342788189292e-01 1.228360859250171716e-01
2.597365160651068372e-01 -1.247876770163491161e-01 -4.728530842658096867e-01
3.681169801752229853e-01 -6.621062186154601237e-02 2.975869468501943227e-01
8.679351030992794869e-02 -3.713028126875895230e-01 4.135874826618041733e-01
4.847540380616080502e-01 -4.190318676252391961e-01 1.372111983160873294e-01
5.229949067864588796e-01 -4.605814702296708307e-01 -9.673953452886219218e-02
4.170452574481286478e-01 4.067834559617714008e-01 2.463010172288453148e-01
7.024835353584248099e-02 5.790784752313071770e-01 4.157657506990204976e-01
5.102011038149425470e-01 -5.643661892114023582e-01 3.648181226836121060e-02
3.280200458100968053e-01 2.055602737631149479e-01 3.283567362563600822e-01
3.805270775573777464e-01 5.122946402894180684e-01 2.880636330830498859e-01
4.247970574784181719e-01 3.616244821621761307e-01 2.361987582059510982e-01
4.642331459334039095e-02 -5.643661892114023582e-01 -3.067193840783152825e-01
4.749702648684713813e-01 -2.792268988383734829e-01 1.608318110773489518e-01
1.566326182411904577e-01 -1.034578633527051400e-01 4.043926954502754523e-01
