-3.689305484294891357e-01 -2.836023271083831787e-01 -2.315899431705474854e-01
-1.230978406965732574e-02 9.646701067686080933e-02 -8.688715100288391113e-01
-5.909873638302087784e-03 3.640328347682952881e-01 -4.185724854469299316e-01
2.435274273157119751e-01 -4.017739892005920410e-01 4.437672495841979980e-01
-4.290646910667419434e-01 -4.719122648239135742e-01 2.197536528110504150e-01
-4.662087559700012207e-01 -4.721295088529586792e-02 4.858152195811271667e-02
-4.089152216911315918e-01 7.087116241455078125e-01 2.684023082256317139e-01
1.079653054475784302e-01 -1.185384243726730347e-01 -4.052061736583709717e-01
-4.382469952106475830e-01 -2.808132469654083252e-01 1.975839734077453613e-01
4.193321168422698975e-01 -2.884406447410583496e-01 2.445101588964462280e-01
-2.770867049694061279e-01 -4.729597568511962891e-01 4.176084995269775391e-01
-1.756921992637217045e-04 3.650652766227722168e-01 -7.731059789657592773e-01
1.810839921236038208e-01 -2.921074330806732178e-01 -3.786154091358184814e-01
-4.328930675983428955e-01 -6.946903467178344727e-01 6.838539987802505493e-02
2.291426658630371094e-01 5.527071356773376465e-01 -3.587093353271484375e-01
-6.013641133904457092e-02 -2.238826751708984375e-01 5.059584975242614746e-01
1.020557507872581482e-01 6.913705468177795410e-01 -4.059842228889465332e-01
-4.355500638484954834e-01 4.996256828308105469e-01 2.040954381227493286e-01
1.898702979087829590e-02 -6.946903467178344727e-01 1.911077052354812622e-01
-4.522074460983276367e-01 6.027524918317794800e-02 1.549438238143920898e-01
1.718798279762268066e-01 3.989851474761962891e-01 -3.824277818202972412e-01
4.211590290069580078e-01 -5.663996338844299316e-01 2.400994598865509033e-01
6.243114918470382690e-02 -6.946903467178344727e-01 -6.289682537317276001e-02
-4.501446783542633057e-01 -3.567842841148376465e-01 -7.433284819126129150e-02
-4.881643131375312805e-02 9.372349828481674194e-02 -4.129233956336975098e-01
-1.519277691841125488e-01 -6.946903467178344727e-01 4.652328789234161377e-01
-4.572019875049591064e-01 2.236764729022979736e-01 1.170021444559097290e-01
-4.133675247430801392e-02 -6.946903467178344727e-01 -2.817284762859344482e-01
2.551107406616210938e-01 -6.946903467178344727e-01 -1.139026209712028503e-01
-4.280011057853698730e-01 -6.545232534408569336e-01 -1.277949810028076172e-01
-1.180953681468963623e-01 -1.868503242731094360e-01 -4.038021862506866455e-01
-3.307636976242065430e-01 1.535781919956207275e-01 3.758556246757507324e-01
-3.991480171680450439e-01 -2.395299449563026428e-02 2.867391407489776611e-01
-4.564356505870819092e-01 7.020769119262695312e-01 -2.829827740788459778e-02
-1.848535835742950439e-01 -6.946903467178344727e-01 1.149815879762172699e-02
7.728490233421325684e-02 -6.946903467178344727e-01 3.993499577045440674e-01
-3.040978908538818359e-01 -6.946903467178344727e-01 2.911184728145599365e-01
3.143280148506164551e-01 -5.774613618850708008e-01 -2.949087023735046387e-01
3.085625171661376953e-01 -6.946903467178344727e-01 1.453564316034317017e-01
-3.096689581871032715e-01 4.062104225158691406e-01 3.926084339618682861e-01
3.308844193816184998e-02 2.061841934919357300e-01 -4.150642454624176025e-01
-2.059917151927947998e-01 7.427588105201721191e-01 -3.680772781372070312e-01
-2.311564087867736816e-01 1.887293905019760132e-01 -3.576540052890777588e-01
4.601922035217285156e-01 -5.418928861618041992e-01 9.829796850681304932e-02
-4.209370911121368408e-01 7.931381464004516602e-01 -1.448499560356140137e-01
4.656850695610046387e-01 -3.731642365455627441e-01 5.659470334649085999e-02
-4.482341110706329346e-01 -3.642993280664086342e-03 -7.894562184810638428e-02
-5.762402713298797607e-02 -1.699824035167694092e-01 -7.893241643905639648e-01
8.159499615430831909e-02 -3.842466473579406738e-01 -4.086780250072479248e-01
-2.067613601684570312e-01 -9.231644868850708008e-02 4.622839689254760742e-01
-3.277085125446319580e-01 -5.453727021813392639e-02 -2.842391133308410645e-01
-3.701076209545135498e-01 -5.496478080749511719e-01 3.245837092399597168e-01
-4.602693915367126465e-01 7.922950983047485352e-01 9.370030462741851807e-02
2.806153893470764160e-01 3.031519949436187744e-01 -3.207800388336181641e-01
3.769090473651885986e-01 4.571400117129087448e-03 -2.218718975782394409e-01
2.301964908838272095e-01 -2.427008897066116333e-01 4.527982771396636963e-01
-3.042935729026794434e-01 -3.785113692283630371e-01 -3.022058010101318359e-01
-4.564962685108184814e-01 -5.539328455924987793e-01 1.223633512854576111e-01
2.214150875806808472e-01 8.469934463500976562e-01 -3.619101345539093018e-01
-4.278935492038726807e-01 2.024814933538436890e-01 -1.280546635389328003e-01
-2.805907726287841797e-01 4.806514382362365723e-01 -3.203933238983154297e-01
-2.272735536098480225e-01 -6.946903467178344727e-01 -2.347242683172225952e-01
-1.378262042999267578e-01 3.549618721008300781e-01 -3.963117003440856934e-01
3.958382904529571533e-01 -3.126220703125000000e-01 -1.972030699253082275e-01
3.933680355548858643e-01 -4.118965566158294678e-01 2.949500679969787598e-01
4.290026426315307617e-01 -6.140277981758117676e-01 -1.266364306211471558e-01
-1.387619413435459137e-02 -3.132950067520141602e-01 -6.419822573661804199e-01
1.129008457064628601e-01 1.216413751244544983e-01 -8.654407262802124023e-01
-1.705463379621505737e-01 -5.691858530044555664e-01 4.772843420505523682e-01
-3.714616969227790833e-02 -3.651355206966400146e-01 5.089853405952453613e-01
4.601789712905883789e-01 -2.020261138677597046e-01 -3.872884903103113174e-03
-1.420262008905410767e-01 -4.973827600479125977e-01 -3.945720493793487549e-01
-1.714686453342437744e-01 -5.568747967481613159e-02 -3.823768794536590576e-01
-5.501990020275115967e-02 5.487429499626159668e-01 -4.121066927909851074e-01
6.988742947578430176e-02 -1.801209896802902222e-01 5.047448277473449707e-01
-2.043737098574638367e-02 7.955429553985595703e-01 -4.166597723960876465e-01
-3.112982809543609619e-01 -6.946903467178344727e-01 8.803666383028030396e-02
2.500991821289062500e-01 -5.396681427955627441e-01 4.387242197990417480e-01
4.348295927047729492e-01 -4.244595468044281006e-01 -1.125687584280967712e-01
7.789278030395507812e-02 -6.946903467178344727e-01 6.765533238649368286e-02
-4.250010550022125244e-01 -2.347074896097183228e-01 -1.350381225347518921e-01
7.735523581504821777e-02 5.330094099044799805e-01 -5.338483452796936035e-01
-3.010456562042236328e-01 -2.833884060382843018e-01 3.992249965667724609e-01
-3.674991726875305176e-01 7.320615053176879883e-01 -2.334552258253097534e-01
2.096248120069503784e-01 1.290606111288070679e-01 -3.667936921119689941e-01
-2.445235103368759155e-01 8.608032464981079102e-01 -3.476936817169189453e-01
2.310717552900314331e-01 -6.946903467178344727e-01 3.489761650562286377e-01
6.754167377948760986e-02 -5.653221607208251953e-01 -4.105282723903656006e-01
-2.599235773086547852e-01 -6.462606191635131836e-01 -3.362516164779663086e-01
-1.104113385081291199e-01 -6.946903467178344727e-01 2.126241624355316162e-01
-1.560054272413253784e-01 6.167338490486145020e-01 -3.887817859649658203e-01
3.556539714336395264e-01 -1.888468563556671143e-01 -2.495717406272888184e-01
-7.106498628854751587e-02 -3.789856731891632080e-01 -4.222614169120788574e-01
-3.410586118698120117e-01 1.181911006569862366e-01 -2.679118514060974121e-01
3.898017108440399170e-02 -3.652118146419525146e-01 -5.146530270576477051e-01
-1.946785598993301392e-01 -6.946903467178344727e-01 3.576950728893280029e-01
-4.345606863498687744e-01 2.930901646614074707e-01 2.064841538667678833e-01
3.133682906627655029e-02 2.022926509380340576e-01 -8.548927307128906250e-01
-1.990153342485427856e-01 -3.590819239616394043e-01 4.654923677444458008e-01
2.104043662548065186e-01 -6.946903467178344727e-01 -2.192858308553695679e-01
-3.647686839103698730e-01 5.879969000816345215e-01 -2.370135337114334106e-01
-2.228810489177703857e-01 -6.946903467178344727e-01 -1.028967499732971191e-01
1.209249626845121384e-02 -9.068716317415237427e-02 -8.307865262031555176e-01
2.665009200572967529e-01 -3.905759155750274658e-01 -3.316115736961364746e-01
-4.046050310134887695e-01 3.459218442440032959e-01 -1.842811256647109985e-01
2.241495549678802490e-01 -1.658307947218418121e-02 -3.607774972915649414e-01
-3.880693912506103516e-01 -5.665676593780517578e-01 -2.066487520933151245e-01
1.411840319633483887e-01 -4.092456400394439697e-01 4.896675348281860352e-01
-1.539986301213502884e-02 -5.535571575164794922e-01 5.118484497070312500e-01
1.129882410168647766e-01 -6.946903467178344727e-01 -3.309170007705688477e-01
-4.577139914035797119e-01 2.401100844144821167e-01 -1.858738623559474945e-02
-3.751293122768402100e-01 2.538766860961914062e-01 3.180396258831024170e-01
4.618689715862274170e-01 -6.370962262153625488e-01 8.958061225712299347e-03
-3.702749684453010559e-02 -6.051738262176513672e-01 -4.144755303859710693e-01
-4.590773880481719971e-01 -1.877306550741195679e-01 1.027554869651794434e-01
-4.468874335289001465e-01 -4.666053950786590576e-01 -8.219695836305618286e-02
1.777498722076416016e-01 -5.695877671241760254e-01 -3.799964189529418945e-01
-4.505600035190582275e-01 7.008780837059020996e-01 1.674586832523345947e-01
-4.246453642845153809e-01 5.431449413299560547e-01 -1.358968764543533325e-01
9.399613738059997559e-02 -6.568281650543212891e-01 5.015707612037658691e-01
-2.544679678976535797e-02 4.842793345451354980e-01 -6.456730961799621582e-01
4.348289966583251953e-01 -2.156136482954025269e-01 -1.125702112913131714e-01
3.371197283267974854e-01 -8.481821417808532715e-02 -2.737257778644561768e-01
-4.645782411098480225e-01 -2.870713174343109131e-01 6.096778064966201782e-02
-1.386755704879760742e-01 2.422117162495851517e-03 4.904853701591491699e-01
-4.453569948673248291e-01 -1.127778664231300354e-01 -8.589193969964981079e-02
-4.236296713352203369e-01 6.091046929359436035e-01 2.328758984804153442e-01
-2.070440202951431274e-01 -2.490517646074295044e-01 -3.676414191722869873e-01
-3.852163553237915039e-01 4.643912315368652344e-01 3.048944175243377686e-01
3.823413848876953125e-01 -5.659719109535217285e-01 -2.147924005985260010e-01
4.551313817501068115e-01 -3.069103956222534180e-01 1.367207467555999756e-01
-3.354265391826629639e-01 -6.946903467178344727e-01 -1.546369493007659912e-01
-1.363525390625000000e-01 -6.946903467178344727e-01 1.094409599900245667e-01
-3.440847154706716537e-03 -2.482647299766540527e-01 -7.268185615539550781e-01
4.350383877754211426e-01 -4.053406789898872375e-02 -1.120646893978118896e-01
-4.595184922218322754e-01 5.070316195487976074e-01 9.940484166145324707e-02
6.591606885194778442e-02 -6.946903467178344727e-01 2.915547192096710205e-01
-1.541742384433746338e-01 1.275889277458190918e-01 -3.895402848720550537e-01
-3.645545542240142822e-01 -1.805162131786346436e-01 -2.372925877571105957e-01
-4.561408460140228271e-01 -6.765785813331604004e-01 -3.053789958357810974e-02
-2.404753267765045166e-01 5.701584815979003906e-01 -3.511745929718017578e-01
2.921947240829467773e-01 -6.946903467178344727e-01 -2.837927937507629395e-01
1.501880437135696411e-01 -6.946903467178344727e-01 1.461102217435836792e-01
2.874342799186706543e-01 -6.350404620170593262e-01 4.100738763809204102e-01
-3.868407905101776123e-01 -6.946903467178344727e-01 1.616999208927154541e-01
-4.622208774089813232e-01 4.069020152091979980e-01 1.564969122409820557e-02
2.879819869995117188e-01 1.721475869417190552e-01 -3.151268362998962402e-01
-8.277963846921920776e-02 -6.946903467178344727e-01 -4.788987338542938232e-02
7.852399349212646484e-02 3.097652792930603027e-01 -4.090823233127593994e-01
1.146940961480140686e-01 -2.745066285133361816e-01 -6.936964392662048340e-01
1.707861721515655518e-01 -6.946903467178344727e-01 -5.163660272955894470e-02
3.336137533187866211e-01 -3.923249244689941406e-01 3.728225529193878174e-01
-4.340969026088714600e-01 3.949006497859954834e-01 2.076039463281631470e-01
-3.869239091873168945e-01 7.997512817382812500e-01 3.026692271232604980e-01
-2.906390130519866943e-01 7.533252835273742676e-01 -3.126831352710723877e-01
-3.669344186782836914e-01 7.389660179615020752e-02 3.287189304828643799e-01
-3.019533157348632812e-01 -2.713641822338104248e-01 -3.040014803409576416e-01
9.850587695837020874e-03 -6.946903467178344727e-01 -1.470533162355422974e-01
-4.535027742385864258e-01 5.989096760749816895e-01 -5.057829618453979492e-02
-1.252216696739196777e-01 -1.371623575687408447e-01 4.960579872131347656e-01
2.749150693416595459e-01 -4.920136928558349609e-01 -3.251545131206512451e-01
4.236844182014465332e-02 -4.888060502707958221e-03 -4.138424396514892578e-01
1.643816083669662476e-01 -5.787709355354309082e-01 4.800590276718139648e-01
8.576852083206176758e-02 4.025627672672271729e-01 -7.438724637031555176e-01
-4.477085471153259277e-01 -3.842562437057495117e-01 1.747400462627410889e-01
-1.084003001451492310e-01 1.489679664373397827e-01 -8.620446920394897461e-01
-3.064621388912200928e-01 -1.244718506932258606e-01 3.950689435005187988e-01
1.903807520866394043e-01 -1.888607293367385864e-01 -3.747646510601043701e-01
1.348618417978286743e-01 5.909057259559631348e-01 -3.977608084678649902e-01
-3.416615426540374756e-01 3.290514349937438965e-01 -2.671261429786682129e-01
-1.108136028051376343e-01 7.606285214424133301e-01 -4.047608971595764160e-01
1.735006123781204224e-01 7.530252337455749512e-01 -3.817564845085144043e-01
-4.335853755474090576e-01 -5.584777593612670898e-01 -1.143126487731933594e-01
-1.367941498756408691e-01 -2.891356647014617920e-01 4.912646710872650146e-01
1.169066950678825378e-01 -1.163822412490844727e-01 -8.204463720321655273e-01
1.024976223707199097e-01 -2.163763344287872314e-01 -4.059260785579681396e-01
3.617644906044006348e-01 9.876462072134017944e-02 -2.416084706783294678e-01
-9.594503790140151978e-02 -2.870450913906097412e-01 -4.067184627056121826e-01
-3.838028311729431152e-01 -1.102526765316724777e-02 -2.122087925672531128e-01
3.838003575801849365e-01 -6.946903467178344727e-01 2.067050188779830933e-01
-1.136359572410583496e-01 5.021132230758666992e-01 -6.116600036621093750e-01
-7.499181479215621948e-02 4.303279221057891846e-01 -4.094771742820739746e-01
1.774005144834518433e-01 -3.219264745712280273e-01 4.746665358543395996e-01
1.521869562566280365e-02 -4.452008306980133057e-01 5.119423866271972656e-01
3.788819313049316406e-01 -6.946903467178344727e-01 6.981682032346725464e-02
-3.809621632099151611e-01 -4.558306336402893066e-01 3.104383945465087891e-01
-4.532513618469238281e-01 -3.468560799956321716e-02 1.470133662223815918e-01
4.212942719459533691e-01 -5.129429101943969727e-01 -1.452460736036300659e-01
-4.437141120433807373e-01 1.072001010179519653e-01 -8.985844254493713379e-02
-2.783310115337371826e-01 -3.779033124446868896e-01 4.166537821292877197e-01
4.661523699760437012e-01 -4.665265083312988281e-01 4.147859290242195129e-02
-2.527868449687957764e-01 -8.124613016843795776e-02 -3.417277336120605469e-01
-3.518956601619720459e-01 -4.939641952514648438e-01 -2.537893056869506836e-01
-2.592689990997314453e-01 1.288889050483703613e-01 4.312799572944641113e-01
-2.166769355535507202e-01 -5.674087405204772949e-01 -3.636514544486999512e-01
-4.033257365226745605e-01 -1.278820931911468506e-01 2.812948226928710938e-01
-4.038873910903930664e-01 -2.559298872947692871e-01 2.805414795875549316e-01
-2.167695164680480957e-01 -4.387179017066955566e-01 -3.636130988597869873e-01
-2.903642058372497559e-01 2.446051985025405884e-01 -3.128940165042877197e-01
3.498494327068328857e-01 3.190232813358306885e-01 -2.571362853050231934e-01
2.485614567995071411e-01 -6.946903467178344727e-01 2.219341844320297241e-01
9.413464367389678955e-02 -4.759157001972198486e-01 -4.070270955562591553e-01
-4.138890802860260010e-01 -3.524958491325378418e-01 2.563934922218322754e-01
-1.323171854019165039e-01 -6.946903467178344727e-01 -2.966506481170654297e-01
-4.200767874717712402e-01 7.663907110691070557e-02 2.414539158344268799e-01
1.586198508739471436e-01 -6.946903467178344727e-01 -1.431257277727127075e-01
1.558137033134698868e-02 -1.222194433212280273e-01 -4.173691868782043457e-01
-1.505204588174819946e-01 3.326468169689178467e-02 -3.910536766052246094e-01
-2.217516750097274780e-01 1.950668171048164368e-02 4.560749530792236328e-01
2.524857223033905029e-01 4.339749813079833984e-01 -3.423669338226318359e-01
7.144225388765335083e-02 4.118620753288269043e-01 -4.100147187709808350e-01
3.505851700901985168e-02 5.933188796043395996e-01 -4.148048460483551025e-01
-4.121564626693725586e-01 -3.578357100486755371e-01 -1.660494059324264526e-01
4.515487551689147949e-01 -6.089681386947631836e-01 1.639207452535629272e-01
-1.212164480239152908e-02 -6.946903467178344727e-01 4.122037887573242188e-01
1.480494439601898193e-01 -2.294114977121353149e-01 4.868239164352416992e-01
3.611059626564383507e-03 8.487312123179435730e-03 -8.598283529281616211e-01
-3.282502293586730957e-01 -5.780558586120605469e-01 -2.838234603404998779e-01
2.584415972232818604e-01 -2.370758056640625000e-01 -3.377963602542877197e-01
-1.006654202938079834e-01 5.968403071165084839e-02 -8.664756417274475098e-01
3.659882545471191406e-01 -6.946903467178344727e-01 -1.195847615599632263e-01
-1.413942687213420868e-02 2.762723267078399658e-01 -8.258042931556701660e-01
-4.642248451709747314e-01 3.192528486251831055e-01 3.087288513779640198e-02
-1.088263243436813354e-01 5.428411960601806641e-01 -4.896250963211059570e-01
1.180798113346099854e-01 -6.448584794998168945e-01 -4.038745462894439697e-01
3.823561072349548340e-01 -6.046905517578125000e-01 3.093009293079376221e-01
4.564608931541442871e-01 -3.968299627304077148e-01 -3.210129216313362122e-02
-4.605442881584167480e-01 -1.227485910058021545e-01 2.913367701694369316e-03
2.684621214866638184e-01 -6.946903467178344727e-01 -2.683385834097862244e-02
-3.627629876136779785e-01 -3.945733606815338135e-01 -2.396273314952850342e-01
4.474872946739196777e-01 -1.213341504335403442e-01 -8.201020956039428711e-02
-4.438886940479278564e-01 4.178572595119476318e-01 -8.943688869476318359e-02
3.963520526885986328e-01 1.654252558946609497e-01 -1.965335607528686523e-01
6.956239789724349976e-02 7.812004685401916504e-01 -4.102621674537658691e-01
-4.578941762447357178e-01 1.343515217304229736e-01 1.117438599467277527e-01
-3.922512531280517578e-01 1.624753326177597046e-01 -2.011990398168563843e-01
-3.354128897190093994e-01 -6.802560687065124512e-01 3.697968721389770508e-01
-5.656933411955833435e-02 -6.946903467178344727e-01 1.459523290395736694e-01
-2.095502018928527832e-01 -6.946903467178344727e-01 2.735397219657897949e-01
-1.929656714200973511e-01 -1.591081768274307251e-01 -3.734727203845977783e-01
-4.651324450969696045e-01 -4.959649145603179932e-01 3.776776790618896484e-02
-6.635137647390365601e-02 3.042853772640228271e-01 -4.106147587299346924e-01
-3.751990944147109985e-02 -6.946903467178344727e-01 -3.789361119270324707e-01
-1.102514639496803284e-01 -3.250423967838287354e-01 -6.164035797119140625e-01
-3.250366151332855225e-01 3.236415088176727295e-01 3.808169066905975342e-01
4.659735262393951416e-01 -2.900863885879516602e-01 4.012076184153556824e-02
-4.555521309375762939e-01 -4.614271819591522217e-01 1.295356750488281250e-01
-1.528806705027818680e-02 -1.532255709171295166e-01 5.118631720542907715e-01
-4.584140777587890625e-01 -4.203528761863708496e-01 -1.326898671686649323e-02
3.330204486846923828e-01 -4.039371907711029053e-01 -2.790680229663848877e-01
4.463257789611816406e-01 -6.843631863594055176e-01 -8.481442928314208984e-02
-3.157338798046112061e-01 -5.458965301513671875e-01 3.879548311233520508e-01
-4.658671021461486816e-01 6.782658100128173828e-01 5.117668211460113525e-02
2.475340291857719421e-02 4.434479773044586182e-01 -6.984241008758544922e-01
-2.254020720720291138e-01 2.792573571205139160e-01 -3.600374758243560791e-01
5.542706325650215149e-02 1.234306469559669495e-01 -4.121232032775878906e-01
6.372127216309309006e-03 4.627442061901092529e-01 -4.185816347599029541e-01
-1.125683858990669250e-01 3.188185393810272217e-01 -8.084661364555358887e-01
-4.626661539077758789e-01 3.903995826840400696e-02 7.549332827329635620e-02
3.003286719322204590e-01 -1.799005456268787384e-02 -3.056519031524658203e-01
-4.662771821022033691e-01 -6.161482334136962891e-01 4.806170985102653503e-02
9.071107953786849976e-03 -2.730524241924285889e-01 5.127516984939575195e-01
1.790410578250885010e-01 -4.980179071426391602e-01 4.739870131015777588e-01
2.692680656909942627e-01 -3.261717259883880615e-01 4.240143299102783203e-01
-4.066130816936492920e-01 5.375040769577026367e-01 2.739605903625488281e-01
1.492248177528381348e-01 -6.946903467178344727e-01 3.565687835216522217e-01
3.914767801761627197e-01 -5.041589736938476562e-01 2.974147796630859375e-01
-3.779710829257965088e-01 8.608032464981079102e-01 -1.971358358860015869e-01
-1.999562978744506836e-01 -4.936395585536956787e-01 4.651026427745819092e-01
-1.160707399249076843e-01 -5.894058942794799805e-01 -4.040687382221221924e-01
-2.302369773387908936e-01 -6.946903467178344727e-01 8.315876871347427368e-02
2.293852418661117554e-01 -6.946903467178344727e-01 1.190942078828811646e-01
-4.454971849918365479e-01 8.608032464981079102e-01 5.054834485054016113e-02
1.673530936241149902e-01 5.070159435272216797e-01 -3.843027651309967041e-01
2.503449618816375732e-01 -5.700057744979858398e-01 -3.440097868442535400e-01
-3.143071532249450684e-01 -6.946903467178344727e-01 1.976202279329299927e-01
-3.258271515369415283e-01 4.233148396015167236e-01 -2.856827080249786377e-01
1.589711010456085205e-01 -3.737099468708038330e-01 -3.877746462821960449e-01
2.602750658988952637e-01 6.237421631813049316e-01 -3.363893330097198486e-01
-3.021930754184722900e-01 6.929509341716766357e-02 3.983445763587951660e-01
1.065100505948066711e-01 -3.059723973274230957e-01 -4.053977727890014648e-01
1.625361740589141846e-01 -6.156414374709129333e-02 -3.862979710102081299e-01
-4.231539666652679443e-01 -1.896504461765289307e-01 2.340244203805923462e-01
1.190649569034576416e-01 1.886306107044219971e-01 -4.037448167800903320e-01
3.785685002803802490e-01 -2.634434401988983154e-01 3.142369985580444336e-01
-4.621525406837463379e-01 7.780085206031799316e-01 1.513062883168458939e-02
-3.559678792953491211e-01 -6.022846698760986328e-02 3.430102169513702393e-01
-6.602913886308670044e-02 4.064730107784271240e-01 -7.416839003562927246e-01
4.355553686618804932e-01 -3.558170497417449951e-01 2.053428441286087036e-01
6.469274312257766724e-02 -3.835983276367187500e-01 5.054287910461425781e-01
-3.406088948249816895e-01 3.909312561154365540e-02 -2.684978842735290527e-01
4.461738094687461853e-02 -6.946903467178344727e-01 -2.912352681159973145e-01
-4.241103529930114746e-01 8.608032464981079102e-01 -1.044064015150070190e-01
-2.471529878675937653e-02 -1.899282634258270264e-01 -4.160965383052825928e-01
-2.719881832599639893e-01 -2.072760015726089478e-01 4.215206205844879150e-01
-2.210016101598739624e-01 6.516475081443786621e-01 -3.618601560592651367e-01
-1.415399163961410522e-01 -4.188745319843292236e-01 -3.947734534740447998e-01
3.966242372989654541e-01 -3.952206671237945557e-01 -1.961788237094879150e-01
-1.238626912236213684e-01 -6.946903467178344727e-01 3.919774591922760010e-01
-4.455778598785400391e-01 8.608032464981079102e-01 1.303769797086715698e-01
2.281349003314971924e-01 3.500258028507232666e-01 -3.591267466545104980e-01
-8.468189090490341187e-02 -5.882790088653564453e-01 5.027268528938293457e-01
-4.508997201919555664e-01 -6.476534605026245117e-01 1.648779064416885376e-01
-4.636078476905822754e-01 5.900207757949829102e-01 2.618593536317348480e-02
1.901814192533493042e-01 5.417069047689437866e-02 -3.748472034931182861e-01
-4.500702619552612305e-01 -2.790408134460449219e-01 -7.451254874467849731e-02
6.093864142894744873e-02 5.040279030799865723e-01 -6.040931344032287598e-01
-2.419841289520263672e-01 -3.160448074340820312e-01 -3.500168323516845703e-01
9.564448893070220947e-02 -6.946903467178344727e-01 2.020833790302276611e-01
4.660775065422058105e-01 -1.391977071762084961e-01 4.091022908687591553e-02
-4.587944149971008301e-01 -9.963037818670272827e-02 1.049052104353904724e-01
-7.221130281686782837e-02 -6.946903467178344727e-01 4.697711467742919922e-01
2.800314724445343018e-01 -4.637106955051422119e-01 4.157546758651733398e-01
-6.654115766286849976e-02 -4.858844876289367676e-01 5.051152110099792480e-01
1.524049341678619385e-01 3.187472820281982422e-01 -3.904943764209747314e-01
4.517352581024169922e-02 -1.537306457757949829e-01 -8.023452758789062500e-01
4.264669716358184814e-01 -4.857054352760314941e-01 2.272847145795822144e-01
2.785471379756927490e-01 5.030660033226013184e-01 -3.223672211170196533e-01
-1.511432379484176636e-01 6.930375099182128906e-01 -3.907957375049591064e-01
-4.387261867523193359e-01 7.324483394622802734e-01 -1.019009873270988464e-01
9.474618360400199890e-03 -3.705311417579650879e-01 -4.444990754127502441e-01
-2.016043514013290405e-01 -6.946903467178344727e-01 -3.336493074893951416e-01
-4.117971360683441162e-01 -5.519216656684875488e-01 2.614442408084869385e-01
-8.000592887401580811e-02 1.165100652724504471e-02 -4.088170230388641357e-01
-3.905096948146820068e-01 6.284768581390380859e-01 2.979962825775146484e-01
-4.641048014163970947e-01 1.826699078083038330e-01 2.996093407273292542e-02
-4.290386736392974854e-01 4.979843739420175552e-03 2.198164463043212891e-01
3.480985015630722046e-02 5.440634489059448242e-01 -4.727061092853546143e-01
-2.851453423500061035e-01 1.299580931663513184e-01 -3.168985247611999512e-01
-6.289859116077423096e-02 -9.770415723323822021e-02 -8.276629447937011719e-01
8.651600033044815063e-02 5.134166032075881958e-02 -8.655495643615722656e-01
-2.317971363663673401e-02 -6.946903467178344727e-01 2.531881630420684814e-01
2.222197316586971283e-02 8.608032464981079102e-01 -4.073170423507690430e-01
3.437553346157073975e-01 -6.395602226257324219e-01 -2.650782167911529541e-01
-3.845964968204498291e-01 -6.946903467178344727e-01 2.608595788478851318e-01
1.521003991365432739e-01 -6.946903467178344727e-01 -2.672533690929412842e-01
4.284618198871612549e-01 -3.476773500442504883e-01 -1.279419809579849243e-01
-4.547795355319976807e-01 -3.183993101119995117e-01 1.354044675827026367e-01
-6.754126399755477905e-02 -6.946903467178344727e-01 -2.071555852890014648e-01
4.113469645380973816e-02 -6.054168939590454102e-01 5.085303187370300293e-01
4.033766388893127441e-01 -1.943227797746658325e-01 -1.873790323734283447e-01
2.452329695224761963e-01 -3.124949932098388672e-01 -3.479327559471130371e-01
-2.933183014392852783e-01 -6.946903467178344727e-01 -2.878730297088623047e-01
-2.514223158359527588e-01 -5.660721063613891602e-01 4.373006224632263184e-01
-2.405837923288345337e-01 -6.946903467178344727e-01 4.152693152427673340e-01
-1.198307871818542480e-01 -3.692706227302551270e-01 -4.801992177963256836e-01
-1.154242008924484253e-01 -3.767341971397399902e-01 4.986793398857116699e-01
-3.939102292060852051e-01 -6.935739517211914062e-01 -1.990370899438858032e-01
-4.431088566780090332e-01 2.027672678232192993e-01 1.858455091714859009e-01
2.765311598777770996e-01 -6.946903467178344727e-01 -1.879391521215438843e-01
2.051261486485600471e-03 2.800423800945281982e-01 -4.191504716873168945e-01
-2.276522964239120483e-01 -4.252464175224304199e-01 4.536308944225311279e-01
4.425084888935089111e-01 -2.255695611238479614e-01 1.885561048984527588e-01
-4.199580252170562744e-01 -4.048543050885200500e-02 -1.472137272357940674e-01
-1.628351211547851562e-01 -6.946903467178344727e-01 -6.200653687119483948e-02
-4.088139832019805908e-01 -1.757627576589584351e-01 -1.741192936897277832e-01
-2.575321197509765625e-01 -6.946903467178344727e-01 1.602962613105773926e-02
-4.524183571338653564e-01 1.800995618104934692e-01 -5.881602317094802856e-02
3.797317743301391602e-01 -3.358446359634399414e-01 3.127210140228271484e-01
4.483084678649902344e-01 -5.374622941017150879e-01 1.745533496141433716e-01
-1.117925718426704407e-01 -2.078845053911209106e-01 -7.599503993988037109e-01
4.562781453132629395e-01 -3.790784776210784912e-01 1.280141621828079224e-01
-4.534746408462524414e-01 4.350008666515350342e-01 1.453173309564590454e-01
-4.514163434505462646e-01 -6.127272844314575195e-01 -6.642801314592361450e-02
-4.568921029567718506e-01 -5.632538720965385437e-02 -2.483077719807624817e-02
2.033652365207672119e-01 6.594787836074829102e-01 -3.693864345550537109e-01
4.528451859951019287e-01 -5.934704542160034180e-01 -5.955270305275917053e-02
1.140979118645191193e-02 7.101516127586364746e-01 -4.179183840751647949e-01
1.225501894950866699e-01 -6.946903467178344727e-01 1.584711368195712566e-03
-3.049021065235137939e-01 2.309485077857971191e-01 3.962659537792205811e-01
1.087828949093818665e-01 3.487582206726074219e-01 -7.850353121757507324e-01
4.272533655166625977e-01 -6.410137414932250977e-01 2.253861427307128906e-01
2.329223789274692535e-03 -6.946903467178344727e-01 -2.418467216193675995e-02
2.335764169692993164e-01 1.956622749567031860e-01 -3.568728864192962646e-01
-4.592130780220031738e-01 -3.343538641929626465e-01 -7.199303247034549713e-03
9.841850399971008301e-02 -3.640863597393035889e-01 -4.752727746963500977e-01
-3.721918910741806030e-02 1.626216322183609009e-01 -8.601809144020080566e-01
-1.900464743375778198e-01 3.982489109039306641e-01 -3.746818602085113525e-01
-3.674327135086059570e-01 6.608974933624267578e-01 -2.335418909788131714e-01
-3.646766841411590576e-01 -6.201826930046081543e-01 3.316611647605895996e-01
-3.703289330005645752e-01 1.823972314596176147e-01 3.242953121662139893e-01
-7.975044101476669312e-02 -1.215986385941505432e-01 -4.088506102561950684e-01
2.764424681663513184e-02 -3.369367122650146484e-01 -5.900070667266845703e-01
3.573057651519775391e-01 -3.461020588874816895e-01 -2.474191337823867798e-01
-4.248972833156585693e-01 -6.437260657548904419e-02 2.298153340816497803e-01
-3.405211269855499268e-01 5.084328055381774902e-01 -2.686122655868530273e-01
2.719351053237915039e-01 -6.946903467178344727e-01 2.923357486724853516e-01
1.229020804166793823e-01 -6.534499116241931915e-03 -4.027145504951477051e-01
-4.904621094465255737e-02 -6.946903467178344727e-01 -1.087338998913764954e-01
-3.276612460613250732e-01 -1.452165096998214722e-01 -2.842753827571868896e-01
-4.095584750175476074e-01 4.487854540348052979e-01 -1.723218113183975220e-01
-4.994757100939750671e-02 8.580942749977111816e-01 -4.127744734287261963e-01
-1.618936210870742798e-01 2.682021558284759521e-01 -3.863428831100463867e-01
-1.396553069353103638e-01 -6.946903467178344727e-01 -2.280487716197967529e-01
-2.360779196023941040e-01 1.913180649280548096e-01 4.490743279457092285e-01
-4.532256722450256348e-01 7.860783934593200684e-01 -5.268319323658943176e-02
-2.516433298587799072e-01 -1.434977650642395020e-01 4.371311068534851074e-01
-8.266748487949371338e-02 -4.628825783729553223e-01 -4.084666073322296143e-01
-4.209135174751281738e-01 7.963448762893676758e-01 2.394337058067321777e-01
-2.915578484535217285e-01 -6.946903467178344727e-01 -2.072332948446273804e-01
-3.475293219089508057e-01 4.935747683048248291e-01 3.540071249008178711e-01
4.643312394618988037e-01 -5.434771180152893066e-01 2.765214070677757263e-02
4.134053736925125122e-02 -2.799002826213836670e-01 -6.860015392303466797e-01
2.097175270318984985e-02 -6.946903467178344727e-01 -2.244239300489425659e-01
5.196175188757479191e-04 -6.946903467178344727e-01 3.407534360885620117e-01
4.572139978408813477e-01 -6.946903467178344727e-01 4.502900317311286926e-02
-2.977734506130218506e-01 2.984258113428950310e-03 -3.072087764739990234e-01
6.640166789293289185e-02 -6.946903467178344727e-01 1.406502723693847656e-01
-3.311902284622192383e-01 -4.809348881244659424e-01 3.752997219562530518e-01
-3.546431660652160645e-01 3.888373672962188721e-01 3.447365462779998779e-01
-1.962709277868270874e-01 8.098757266998291016e-01 -3.721036612987518311e-01
3.041882812976837158e-01 2.369310855865478516e-01 -3.026900291442871094e-01
2.253379374742507935e-01 -6.946903467178344727e-01 -2.946586310863494873e-01
-4.000462889671325684e-01 -6.946903467178344727e-01 9.150331839919090271e-03
-3.167770057916641235e-02 -3.598615527153015137e-01 -4.980331361293792725e-01
-1.092749312520027161e-01 -6.946903467178344727e-01 2.837773859500885010e-01
4.047732651233673096e-01 -6.752480268478393555e-01 2.796592712402343750e-01
-2.458539903163909912e-01 4.293097853660583496e-01 -3.470474481582641602e-01
-3.768671452999114990e-01 7.977145314216613770e-01 -2.212471365928649902e-01
-1.063065081834793091e-01 4.901377558708190918e-01 -4.053542912006378174e-01
-1.977077573537826538e-01 -6.454141139984130859e-01 4.660339951515197754e-01
2.751082181930541992e-02 -4.285093545913696289e-01 -4.157985746860504150e-01
-5.679052695631980896e-02 -2.909025251865386963e-01 5.063989758491516113e-01
3.971467316150665283e-01 -5.370362102985382080e-02 -1.954979002475738525e-01
-4.067466557025909424e-01 7.347632050514221191e-01 -1.791104525327682495e-01
-4.640204906463623047e-01 4.848115146160125732e-01 2.932074666023254395e-02
3.108539283275604248e-01 -6.946903467178344727e-01 3.639410436153411865e-01
-1.466693580150604248e-01 -6.388531625270843506e-02 4.871743023395538330e-01
-4.095517992973327637e-01 -5.134251117706298828e-01 -1.723379194736480713e-01
3.139396905899047852e-01 -6.946903467178344727e-01 2.406631410121917725e-01
-2.109419852495193481e-01 9.532997012138366699e-02 -3.660268783569335938e-01
2.580785453319549561e-01 -6.946903467178344727e-01 4.114414453506469727e-01
-4.078597575426101685e-02 1.596157401800155640e-01 -4.139806926250457764e-01
3.204810321331024170e-01 -1.467971801757812500e-01 -2.901868224143981934e-01
8.834296464920043945e-02 -4.470666050910949707e-01 5.023150444030761719e-01
3.934384882450103760e-01 -6.340577006340026855e-01 -2.003305554389953613e-01
-1.270851045846939087e-01 -5.139020681381225586e-01 4.952861964702606201e-01
4.585640132427215576e-01 -4.427199065685272217e-01 1.106592863798141479e-01
-4.205664098262786865e-01 2.323820292949676514e-01 2.402717322111129761e-01
1.111914962530136108e-01 5.428090095520019531e-01 -4.781742095947265625e-01
4.634434580802917480e-01 -6.245740652084350586e-01 7.361364364624023438e-02
3.395719528198242188e-01 1.701286286115646362e-01 -2.705300450325012207e-01
-4.493941068649291992e-01 8.035652637481689453e-01 1.706705093383789062e-01
4.608218669891357422e-01 -2.369872778654098511e-01 9.351717680692672729e-02
-3.319699168205261230e-01 -4.370579421520233154e-01 -2.797560095787048340e-01
1.608593910932540894e-01 8.471840620040893555e-01 -3.869924843311309814e-01
-3.142519295215606689e-01 1.864014416933059692e-01 -2.945645749568939209e-01
4.236394464969635010e-01 3.213978186249732971e-02 -1.395842581987380981e-01
-4.447306096553802490e-01 5.602808594703674316e-01 1.819299906492233276e-01
1.086951717734336853e-01 1.861211657524108887e-01 -8.569517135620117188e-01
-4.100729227066040039e-01 -4.168892800807952881e-01 2.656071186065673828e-01
-3.727243542671203613e-01 6.970264911651611328e-01 3.211736381053924561e-01
-2.296319417655467987e-02 -3.219696581363677979e-01 -4.163272380828857422e-01
-4.432098567485809326e-01 -5.588797330856323242e-01 1.856017261743545532e-01
4.578949511051177979e-01 -6.942241191864013672e-01 -2.121375873684883118e-02
-3.200432693120092154e-04 -5.523988604545593262e-01 -4.193084239959716797e-01
1.978549174964427948e-02 5.538612604141235352e-02 -4.168156981468200684e-01
-4.536287784576416016e-01 5.791326984763145447e-02 -4.962107539176940918e-02
2.892346084117889404e-01 3.827607035636901855e-01 -3.141655623912811279e-01
1.183579191565513611e-01 4.638091027736663818e-01 -4.038379192352294922e-01
-1.504809409379959106e-01 -2.117676138877868652e-01 4.855955541133880615e-01
-2.512286901473999023e-01 -3.427610918879508972e-02 4.374492168426513672e-01
4.786752536892890930e-02 2.617606222629547119e-01 -8.316360116004943848e-01
-4.183756411075592041e-01 2.613777816295623779e-01 -1.510341316461563110e-01
-4.542965292930603027e-01 -2.545907497406005859e-01 1.390737593173980713e-01
-7.731254398822784424e-02 6.164516210556030273e-01 -4.091716110706329346e-01
-3.969499766826629639e-01 8.608032464981079102e-01 2.874735891819000244e-01
2.927894890308380127e-01 -6.374387145042419434e-01 -3.114375174045562744e-01
6.581918150186538696e-02 -2.438529431819915771e-01 5.052804350852966309e-01
-3.926375806331634521e-01 -2.309180498123168945e-01 -2.006956189870834351e-01
5.068409815430641174e-02 -1.806444525718688965e-01 -4.127476513385772705e-01
4.582427144050598145e-01 -2.635594606399536133e-01 -1.857320778071880341e-02
2.339531034231185913e-01 2.799840271472930908e-01 -3.565889894962310791e-01
-3.814918398857116699e-01 -6.946903467178344727e-01 -5.126845091581344604e-02
-7.939960807561874390e-02 -6.582822203636169434e-01 -4.088968634605407715e-01
-4.492320716381072998e-01 2.633647918701171875e-01 -7.653611153364181519e-02
-5.320371314883232117e-02 3.355172872543334961e-01 -7.960631847381591797e-01
-1.186154857277870178e-01 -1.577977091073989868e-01 -7.983471751213073730e-01
4.156568050384521484e-01 -2.671140134334564209e-01 -1.588561683893203735e-01
-4.201360642910003662e-01 -2.960890531539916992e-01 -1.467838287353515625e-01
1.837556958198547363e-01 -1.266333013772964478e-01 -3.775087893009185791e-01
1.594067960977554321e-01 -6.946903467178344727e-01 8.420182764530181885e-02
1.011907458305358887e-01 -5.900492072105407715e-01 5.006235837936401367e-01
2.299138307571411133e-01 -4.662045240402221680e-01 4.529153704643249512e-01
2.834304869174957275e-01 -6.946903467178344727e-01 3.377078473567962646e-02
4.126404225826263428e-01 -6.825181841850280762e-01 -1.661384701728820801e-01
2.376542389392852783e-01 -5.999400615692138672e-01 4.482743144035339355e-01
-2.307089269161224365e-01 -3.941684029996395111e-03 -3.578393459320068359e-01
-4.087550938129425049e-01 4.195582866668701172e-01 2.687889933586120605e-01
1.632364690303802490e-01 -6.458764076232910156e-01 4.805333912372589111e-01
-1.135159209370613098e-01 -5.585025250911712646e-02 -4.044051170349121094e-01
3.202705979347229004e-01 -6.946903467178344727e-01 -7.774255424737930298e-02
-2.804131805896759033e-01 -4.416718184947967529e-01 -3.205296099185943604e-01
-4.451632872223854065e-02 2.396819442510604858e-01 -4.134895205497741699e-01
1.885252818465232849e-02 5.216326713562011719e-01 -5.623006820678710938e-01
-2.534681260585784912e-01 -2.683861255645751953e-01 4.357309043407440186e-01
-1.454909741878509521e-01 4.368712306022644043e-01 -3.931369185447692871e-01
-2.331542670726776123e-01 -6.946903467178344727e-01 -1.732225716114044189e-01
8.382327109575271606e-02 -5.403201282024383545e-02 -4.083846509456634521e-01
-1.715308427810668945e-01 1.864187866449356079e-01 -3.823511004447937012e-01
-4.394799470901489258e-02 -2.803325653076171875e-01 -6.846628785133361816e-01
-4.655947089195251465e-01 -2.258610129356384277e-01 5.324615165591239929e-02
2.601408958435058594e-01 2.722938172519207001e-02 -3.364923000335693359e-01
1.956865936517715454e-02 -6.946903467178344727e-01 4.235310852527618408e-02
4.435339570045471191e-02 1.205682978034019470e-01 -8.656449913978576660e-01
-3.272128701210021973e-01 -3.427766263484954834e-01 3.791470229625701904e-01
4.005109965801239014e-01 7.086140662431716919e-02 -1.911135464906692505e-01
-3.811386525630950928e-01 5.326380133628845215e-01 -2.156806588172912598e-01
3.513974547386169434e-01 -6.392011046409606934e-01 3.496465682983398438e-01
1.293236613273620605e-01 1.282063275575637817e-01 -4.000547230243682861e-01
-6.250470876693725586e-02 1.205298956483602524e-02 -8.602366447448730469e-01
-3.412174582481384277e-01 7.755944728851318359e-01 -2.677048146724700928e-01
-2.679539620876312256e-01 -5.661152005195617676e-01 -3.300897777080535889e-01
-2.518912851810455322e-01 -6.946903467178344727e-01 3.357713520526885986e-01
2.986226677894592285e-01 -5.409286022186279297e-01 4.014880955219268799e-01
4.536983370780944824e-01 -4.542182087898254395e-01 -5.307511240243911743e-02
2.108924686908721924e-01 -6.946903467178344727e-01 2.889671027660369873e-01
2.821253798902034760e-02 -6.249529123306274414e-01 -4.157062172889709473e-01
-3.378362059593200684e-01 -6.946903467178344727e-01 1.979546062648296356e-02
3.508658409118652344e-01 -5.338151454925537109e-01 -2.558117210865020752e-01
3.869844228029251099e-02 -6.946903467178344727e-01 5.050515532493591309e-01
-7.642515748739242554e-02 -4.230862557888031006e-01 5.038139224052429199e-01
-9.751017205417156219e-03 -6.946903467178344727e-01 1.072186455130577087e-01
-3.802560567855834961e-01 -3.080153167247772217e-01 3.113585710525512695e-01
3.818545341491699219e-01 -2.435058355331420898e-01 -2.154268622398376465e-01
-5.109257251024246216e-02 4.448300302028656006e-01 -6.973124146461486816e-01
2.405148372054100037e-02 -5.078468322753906250e-01 5.107794404029846191e-01
-9.941388666629791260e-02 1.478270590305328369e-01 -4.062618017196655273e-01
-3.787697758525609970e-03 -1.915566623210906982e-01 -7.730578780174255371e-01
-2.806454896926879883e-01 -6.946903467178344727e-01 -8.596139401197433472e-02
4.545463621616363525e-01 -3.013698756694793701e-02 -4.663690179586410522e-02
2.198430895805358887e-01 -7.963819801807403564e-02 -3.625612258911132812e-01
1.669695675373077393e-01 -6.946903467178344727e-01 -3.571024239063262939e-01
2.594058215618133545e-01 1.077392026782035828e-01 -3.370564281940460205e-01
3.048428595066070557e-01 -2.245413959026336670e-01 -3.021877110004425049e-01
1.457889974117279053e-01 -5.207992196083068848e-01 -3.932346999645233154e-01
-4.178573489189147949e-01 2.864620089530944824e-02 -1.522854715585708618e-01
-4.613952934741973877e-01 7.272362112998962402e-01 8.514753729104995728e-02
-3.427231907844543457e-01 2.928565070033073425e-02 3.602703511714935303e-01
1.390288025140762329e-01 -6.946903467178344727e-01 4.154489040374755859e-01
-2.148553542792797089e-02 -4.507267475128173828e-02 -8.495830297470092773e-01
3.411153703927993774e-02 4.794825315475463867e-01 -6.513820290565490723e-01
-3.064726293087005615e-01 7.671400904655456543e-02 -3.005337417125701904e-01
-2.098765410482883453e-02 8.938630111515522003e-03 -4.165873527526855469e-01
1.276565343141555786e-01 -3.474473655223846436e-01 4.952706992626190186e-01
5.556789785623550415e-02 -3.151675164699554443e-01 -6.401728987693786621e-01
2.138770222663879395e-01 -3.700993955135345459e-01 -3.650324344635009766e-01
3.890982568264007568e-01 -6.946903467178344727e-01 1.296462118625640869e-01
1.043420433998107910e-01 -3.605081140995025635e-01 -5.343972444534301758e-01
1.525420695543289185e-01 -6.946903467178344727e-01 -2.063508778810501099e-01
1.734695583581924438e-01 -6.285238862037658691e-01 -3.817693293094635010e-01
-1.539431363344192505e-01 -2.627727985382080078e-01 -3.896360099315643311e-01
-2.801100611686706543e-01 8.107884526252746582e-01 -3.207621872425079346e-01
2.118317037820816040e-01 4.731308221817016602e-01 -3.658795654773712158e-01
-4.512459337711334229e-01 6.587358117103576660e-01 -6.772243231534957886e-02
3.372156918048858643e-01 -4.508439600467681885e-01 3.681284487247467041e-01
-3.570717871189117432e-01 -1.271060109138488770e-01 3.415716290473937988e-01
3.186072707176208496e-01 -4.594464600086212158e-01 -2.916247844696044922e-01
-2.641647160053253174e-01 -2.371209561824798584e-01 -3.329973220825195312e-01
-3.171477913856506348e-01 -2.214482724666595459e-01 3.868699669837951660e-01
-1.692404747009277344e-01 -6.946903467178344727e-01 2.009232342243194580e-01
-6.380402296781539917e-02 3.677690923213958740e-01 -4.109501242637634277e-01
-1.359900981187820435e-01 -1.108575761318206787e-01 -3.970722258090972900e-01
-2.281931042671203613e-01 -3.816718757152557373e-01 -3.588814139366149902e-01
-1.385186910629272461e-01 -6.439031958580017090e-01 4.905503094196319580e-01
-4.429220259189605713e-01 4.945981502532958984e-01 -9.177073091268539429e-02
-3.046703636646270752e-01 3.004508912563323975e-01 -3.019166588783264160e-01
2.002698034048080444e-01 -6.946903467178344727e-01 4.045112431049346924e-01
4.235479980707168579e-02 -6.946903467178344727e-01 -3.493701815605163574e-01
-3.080238699913024902e-01 3.697223961353302002e-01 -2.993434667587280273e-01
-3.301273286342620850e-01 6.906490325927734375e-01 -2.821571826934814453e-01
-4.567309916019439697e-01 -6.859421730041503906e-01 1.205804198980331421e-01
2.395939826965332031e-02 -3.428586423397064209e-01 5.107915997505187988e-01
-4.258059263229370117e-01 3.206649422645568848e-01 -1.330948919057846069e-01
-2.064459621906280518e-01 -1.033195331692695618e-01 -3.678891360759735107e-01
-3.916959762573242188e-01 3.318837657570838928e-02 2.964504063129425049e-01
-3.991127610206604004e-01 -6.098269820213317871e-01 2.867850363254547119e-01
-3.795434534549713135e-01 -3.441776335239410400e-01 -2.177594751119613647e-01
3.249658048152923584e-01 -3.345860242843627930e-01 3.812727332115173340e-01
-7.230469584465026855e-02 -2.212156057357788086e-01 -4.098309576511383057e-01
-6.188923958688974380e-03 5.195739865303039551e-01 -4.185356795787811279e-01
-4.254297912120819092e-01 1.456501036882400513e-01 -1.340030431747436523e-01
-4.063865542411804199e-01 -4.965136647224426270e-01 2.745074927806854248e-01
-4.545480310916900635e-01 3.870362043380737305e-01 -4.263789579272270203e-02
-2.875775694847106934e-01 5.369181632995605469e-01 -3.150322735309600830e-01
-3.041794002056121826e-01 -4.245721399784088135e-01 3.968204855918884277e-01
-3.264002129435539246e-02 -3.352904915809631348e-01 -5.929657220840454102e-01
-3.699676990509033203e-01 -6.946903467178344727e-01 -1.094253137707710266e-01
-1.948968917131423950e-01 -1.477356404066085815e-01 4.671982824802398682e-01
-4.648273289203643799e-01 9.941417723894119263e-02 5.907577648758888245e-02
3.614906072616577148e-01 -2.894157171249389648e-01 -2.419653683900833130e-01
-2.771591842174530029e-01 3.118057847023010254e-01 4.175529479980468750e-01
-5.044476315379142761e-02 4.834807515144348145e-01 -4.127090275287628174e-01
6.623189430683851242e-03 -6.368420273065567017e-02 -4.185485839843750000e-01
2.863222956657409668e-01 -2.687035202980041504e-01 4.109271466732025146e-01
3.322616219520568848e-01 3.680836036801338196e-02 -2.800569236278533936e-01
-1.153884679079055786e-01 -6.946903467178344727e-01 5.687761679291725159e-02
4.540184438228607178e-01 -4.894379079341888428e-01 1.451702862977981567e-01
1.021235138177871704e-01 -6.946903467178344727e-01 -1.405917704105377197e-01
1.197395548224449158e-01 4.332837164402008057e-01 -7.108065485954284668e-01
4.527671337127685547e-01 -2.054007947444915771e-01 -6.014513224363327026e-02
-4.618484377861022949e-01 2.951288819313049316e-01 8.170514553785324097e-02
1.220070794224739075e-01 -6.946903467178344727e-01 4.707873463630676270e-01
1.945402622222900391e-01 -4.157374203205108643e-01 4.675672650337219238e-01
-2.249514013528823853e-01 9.103900194168090820e-02 4.547495543956756592e-01
-3.223230689764022827e-02 -4.189673662185668945e-01 -4.151068627834320068e-01
-4.627710282802581787e-01 4.630078747868537903e-02 1.982896775007247925e-02
2.286932617425918579e-01 -3.009001314640045166e-01 4.534209072589874268e-01
-3.322054445743560791e-01 6.259336471557617188e-01 -2.794490158557891846e-01
-3.957180380821228027e-01 1.036961600184440613e-01 2.912089228630065918e-01
1.746308952569961548e-01 1.884139925241470337e-01 -3.812882900238037109e-01
-4.440987408161163330e-01 -2.095974981784820557e-01 -8.892972767353057861e-02
-4.337037503719329834e-01 6.181465983390808105e-01 -1.140268743038177490e-01
-1.890732347965240479e-01 5.520668029785156250e-01 -3.750849664211273193e-01
4.634784758090972900e-01 -1.844428777694702148e-01 7.334768027067184448e-02
-2.793987691402435303e-01 -7.707346230745315552e-02 4.158345162868499756e-01
-4.564658999443054199e-01 -4.739477038383483887e-01 -2.806838601827621460e-02
-2.203472107648849487e-01 4.759396612644195557e-01 -3.621312081813812256e-01
-4.373104572296142578e-01 7.436126470565795898e-01 1.998451501131057739e-01
-4.659241735935211182e-01 -3.412879705429077148e-01 5.074330046772956848e-02
-4.545065462589263916e-01 -1.528407335281372070e-01 -4.295300692319869995e-02
5.836442578583955765e-04 1.174466460943222046e-01 -4.193437397480010986e-01
-3.032769858837127686e-01 -6.388924121856689453e-01 -3.029858171939849854e-01
-4.512369036674499512e-01 3.214994668960571289e-01 1.623165458440780640e-01
