3.533883392810821533e-02 1.963278949260711670e-01 -4.220373928546905518e-01
2.024545148015022278e-02 2.395072132349014282e-01 -4.266457259654998779e-01
1.191142499446868896e-01 -6.018071994185447693e-02 -3.957983553409576416e-01
9.825244545936584473e-02 -1.681477949023246765e-02 -4.044107198715209961e-01
8.035004138946533203e-02 2.125640213489532471e-02 -4.112305641174316406e-01
6.125673651695251465e-02 5.994305014610290527e-02 -4.170034229755401611e-01
4.645654559135437012e-02 1.069019287824630737e-01 -4.207050502300262451e-01
3.018479794263839722e-02 1.502102613449096680e-01 -4.248708486557006836e-01
1.372040063142776489e-02 1.899401694536209106e-01 -4.296265840530395508e-01
-1.478042453527450562e-03 2.291500717401504517e-01 -4.326586425304412842e-01
1.077839136123657227e-01 -9.501717984676361084e-02 -3.947144150733947754e-01
8.522593230009078979e-02 -5.189737305045127869e-02 -4.048319756984710693e-01
6.512721627950668335e-02 -1.031973585486412048e-02 -4.121660590171813965e-01
4.720515012741088867e-02 3.085739351809024811e-02 -4.187795817852020264e-01
2.947671338915824890e-02 7.749161869287490845e-02 -4.237623214721679688e-01
1.478366181254386902e-02 1.276749372482299805e-01 -4.294056296348571777e-01
1.026082783937454224e-03 1.711163073778152466e-01 -4.341344237327575684e-01
-1.529012247920036316e-02 2.132969349622726440e-01 -4.350832104682922363e-01
8.750075101852416992e-02 -1.146862953901290894e-01 -4.162099063396453857e-01
6.234167888760566711e-02 -8.267472684383392334e-02 -4.070283174514770508e-01
4.115734249353408813e-02 -4.162129387259483337e-02 -4.153547883033752441e-01
2.546236850321292877e-02 3.162275999784469604e-03 -4.233918488025665283e-01
1.493519544601440430e-02 5.452055484056472778e-02 -4.291346371173858643e-01
2.216722816228866577e-03 9.871001541614532471e-02 -4.331113696098327637e-01
-1.419727131724357605e-02 1.442743092775344849e-01 -4.339623451232910156e-01
-2.746000885963439941e-02 1.895489841699600220e-01 -4.342807531356811523e-01
4.858469963073730469e-02 -6.349854171276092529e-02 -5.481603145599365234e-01
1.607446745038032532e-02 -1.020163297653198242e-01 -4.480717182159423828e-01
7.743913680315017700e-03 -6.182641908526420593e-02 -4.416300058364868164e-01
-4.592638462781906128e-03 -1.463177427649497986e-02 -4.376388788223266602e-01
-1.440100744366645813e-02 3.042645193636417389e-02 -4.321072697639465332e-01
-2.399221062660217285e-02 7.343755662441253662e-02 -4.331609010696411133e-01
-3.386881947517395020e-02 1.155041381716728210e-01 -4.345049262046813965e-01
-4.447454214096069336e-02 1.593007296323776245e-01 -4.353110492229461670e-01
-9.634342044591903687e-03 7.096100598573684692e-03 -6.711991429328918457e-01
-3.631897270679473877e-02 -2.415073290467262268e-02 -5.554782152175903320e-01
-4.269313812255859375e-02 -5.524779483675956726e-02 -4.602383375167846680e-01
-4.301156103610992432e-02 -2.752949669957160950e-02 -4.471418857574462891e-01
-4.811303317546844482e-02 1.331857964396476746e-02 -4.393239319324493408e-01
-5.455483496189117432e-02 4.990467429161071777e-02 -4.305425882339477539e-01
-6.166963279247283936e-02 8.812832087278366089e-02 -4.300726652145385742e-01
-7.057866454124450684e-02 1.326870471239089966e-01 -4.317033886909484863e-01
3.995825648307800293e-01 2.530456483364105225e-01 -1.762435138225555420e-01
3.980281949043273926e-01 2.921570241451263428e-01 -1.785232722759246826e-01
3.959764838218688965e-01 3.244570195674896240e-01 -1.840494573116302490e-01
3.933486938476562500e-01 3.627788126468658447e-01 -1.883589774370193481e-01
3.910660743713378906e-01 4.016706347465515137e-01 -1.922864615917205811e-01
3.891479074954986572e-01 4.368186891078948975e-01 -1.966670900583267212e-01
3.869290053844451904e-01 4.676467776298522949e-01 -2.006351351737976074e-01
3.825590312480926514e-01 4.987307786941528320e-01 -2.044264525175094604e-01
3.883114755153656006e-01 2.252368330955505371e-01 -1.941255033016204834e-01
3.864534497261047363e-01 2.737429738044738770e-01 -2.008567303419113159e-01
3.848475217819213867e-01 3.073854148387908936e-01 -2.061556577682495117e-01
3.807597756385803223e-01 3.437529206275939941e-01 -2.097435295581817627e-01
3.762306869029998779e-01 3.810735046863555908e-01 -2.143958508968353271e-01
3.729525506496429443e-01 4.203247129917144775e-01 -2.182739973068237305e-01
3.692218661308288574e-01 4.578202962875366211e-01 -2.233750075101852417e-01
3.626536428928375244e-01 4.940042197704315186e-01 -2.294208705425262451e-01
3.790888190269470215e-01 1.981409341096878052e-01 -2.131346911191940308e-01
3.744202256202697754e-01 2.487520426511764526e-01 -2.183849662542343140e-01
3.708814978599548340e-01 2.899250686168670654e-01 -2.234995514154434204e-01
3.648225665092468262e-01 3.274040818214416504e-01 -2.310388088226318359e-01
3.610782623291015625e-01 3.626827895641326904e-01 -2.349338829517364502e-01
3.576872944831848145e-01 4.005120992660522461e-01 -2.382223010063171387e-01
3.526299297809600830e-01 4.451009929180145264e-01 -2.429263144731521606e-01
3.479016721248626709e-01 4.838668406009674072e-01 -2.495491951704025269e-01
3.673565983772277832e-01 1.742468178272247314e-01 -2.272256165742874146e-01
3.622619211673736572e-01 2.238762378692626953e-01 -2.335629761219024658e-01
3.574267625808715820e-01 2.698144316673278809e-01 -2.405387610197067261e-01
3.527638912200927734e-01 3.078423440456390381e-01 -2.463610172271728516e-01
3.492769300937652588e-01 3.433027565479278564e-01 -2.498268932104110718e-01
3.455304503440856934e-01 3.806568980216979980e-01 -2.533933520317077637e-01
3.419247269630432129e-01 4.246676564216613770e-01 -2.569622695446014404e-01
3.382030725479125977e-01 4.709889590740203857e-01 -2.628635764122009277e-01
3.541656732559204102e-01 1.550366282463073730e-01 -2.428138256072998047e-01
3.489172458648681641e-01 1.991157978773117065e-01 -2.496139854192733765e-01
3.466212451457977295e-01 2.477136552333831787e-01 -2.529855966567993164e-01
3.442965149879455566e-01 2.914741635322570801e-01 -2.566936314105987549e-01
3.416889905929565430e-01 3.262571096420288086e-01 -2.601127326488494873e-01
3.377979993820190430e-01 3.605643212795257568e-01 -2.645371258258819580e-01
3.329609036445617676e-01 4.010703265666961670e-01 -2.693735659122467041e-01
3.279968798160552979e-01 4.490363001823425293e-01 -2.746774554252624512e-01
3.415244221687316895e-01 1.374697685241699219e-01 -2.580180764198303223e-01
3.383704423904418945e-01 1.798634231090545654e-01 -2.633365094661712646e-01
3.372925221920013428e-01 2.238964438438415527e-01 -2.657374441623687744e-01
3.359738588333129883e-01 2.693661749362945557e-01 -2.665235400199890137e-01
3.328984677791595459e-01 3.098362088203430176e-01 -2.698035836219787598e-01
3.276000320911407471e-01 3.444231748580932617e-01 -2.753083705902099609e-01
3.225327134132385254e-01 3.789581358432769775e-01 -2.805068790912628174e-01
3.155910968780517578e-01 4.207819700241088867e-01 -2.874152660369873047e-01
3.249569535255432129e-01 1.141370087862014771e-01 -2.789683938026428223e-01
3.244825303554534912e-01 1.648420840501785278e-01 -2.786999046802520752e-01
3.228232562541961670e-01 2.016032487154006958e-01 -2.804137468338012695e-01
3.211452364921569824e-01 2.442693412303924561e-01 -2.819649875164031982e-01
3.182633221149444580e-01 2.879031598567962646e-01 -2.845075726509094238e-01
3.120054900646209717e-01 3.256528675556182861e-01 -2.899262905120849609e-01
3.050903677940368652e-01 3.556971848011016846e-01 -2.939341664314270020e-01
2.991941869258880615e-01 3.907319009304046631e-01 -2.973552942276000977e-01
2.936593294143676758e-01 1.041022539138793945e-01 -2.999481856822967529e-01
3.046458959579467773e-01 1.482185423374176025e-01 -2.938448488712310791e-01
3.023896217346191406e-01 1.849820166826248169e-01 -2.953056097030639648e-01
2.997525632381439209e-01 2.232980877161026001e-01 -2.970701456069946289e-01
2.973911762237548828e-01 2.657208144664764404e-01 -2.988956868648529053e-01
2.919345498085021973e-01 3.044385313987731934e-01 -3.019515872001647949e-01
2.848403453826904297e-01 3.357458710670471191e-01 -3.057317137718200684e-01
2.770672440528869629e-01 3.677079081535339355e-01 -3.099878430366516113e-01
-1.892829388380050659e-01 5.334017276763916016e-01 -3.567246198654174805e-01
-2.057993113994598389e-01 5.588904023170471191e-01 -3.524144887924194336e-01
-2.182776182889938354e-01 5.768274664878845215e-01 -3.468884825706481934e-01
-2.304069995880126953e-01 5.964809060096740723e-01 -3.394196629524230957e-01
-2.408745437860488892e-01 6.185962557792663574e-01 -3.350492715835571289e-01
-2.548006176948547363e-01 6.432088613510131836e-01 -3.278034031391143799e-01
-2.694244682788848877e-01 6.655498147010803223e-01 -3.162346482276916504e-01
-2.915966510772705078e-01 6.952497959136962891e-01 -2.961245179176330566e-01
-2.156934738159179688e-01 5.138182640075683594e-01 -3.440452218055725098e-01
-2.310790270566940308e-01 5.428838729858398438e-01 -3.362297117710113525e-01
-2.435889691114425659e-01 5.655086636543273926e-01 -3.305951356887817383e-01
-2.530473470687866211e-01 5.817296504974365234e-01 -3.263655900955200195e-01
-2.635856866836547852e-01 5.980640649795532227e-01 -3.194178342819213867e-01
-2.748820781707763672e-01 6.216326355934143066e-01 -3.116575479507446289e-01
-2.907533347606658936e-01 6.468516588211059570e-01 -2.985549271106719971e-01
-3.129288256168365479e-01 6.715483069419860840e-01 -2.792307734489440918e-01
-2.352461218833923340e-01 4.937178194522857666e-01 -3.303845226764678955e-01
-2.490420192480087280e-01 5.251623392105102539e-01 -3.243579268455505371e-01
-2.591962218284606934e-01 5.478756427764892578e-01 -3.183417916297912598e-01
-2.693980932235717773e-01 5.643043518066406250e-01 -3.112552464008331299e-01
-2.800315320491790771e-01 5.801191926002502441e-01 -3.039805889129638672e-01
-2.910529375076293945e-01 5.971869826316833496e-01 -2.965697646141052246e-01
-3.088829219341278076e-01 6.230065226554870605e-01 -2.837196588516235352e-01
-3.290680348873138428e-01 6.519615054130554199e-01 -2.691802978515625000e-01
-2.466716021299362183e-01 4.669068157672882080e-01 -3.224162757396697998e-01
-2.618772685527801514e-01 4.987774193286895752e-01 -3.131121695041656494e-01
-2.728677093982696533e-01 5.241602659225463867e-01 -3.056905269622802734e-01
-2.831582427024841309e-01 5.432225465774536133e-01 -2.990881800651550293e-01
-2.947267293930053711e-01 5.592149496078491211e-01 -2.927012443542480469e-01
-3.070274889469146729e-01 5.754258036613464355e-01 -2.859837412834167480e-01
-3.253766298294067383e-01 5.968105196952819824e-01 -2.730742394924163818e-01
-3.407261967658996582e-01 6.271924972534179688e-01 -2.605521678924560547e-01
-2.592992782592773438e-01 4.440567791461944580e-01 -3.159885406494140625e-01
-2.727094888687133789e-01 4.695506691932678223e-01 -3.066256046295166016e-01
-2.845501899719238281e-01 4.946233034133911133e-01 -2.988785207271575928e-01
-2.954496145248413086e-01 5.173269510269165039e-01 -2.923460006713867188e-01
-3.058691322803497314e-01 5.350554585456848145e-01 -2.862954735755920410e-01
-3.212714791297912598e-01 5.523054003715515137e-01 -2.772117257118225098e-01
-3.361333906650543213e-01 5.734824538230895996e-01 -2.650327384471893311e-01
-3.497731983661651611e-01 6.020963191986083984e-01 -2.524302005767822266e-01
-2.720699608325958252e-01 4.176820814609527588e-01 -3.086538016796112061e-01
-2.851538956165313721e-01 4.440736174583435059e-01 -2.996393442153930664e-01
-2.976145148277282715e-01 4.666923284530639648e-01 -2.919833660125732422e-01
-3.083264529705047607e-01 4.907587468624114990e-01 -2.851519584655761719e-01
-3.206246495246887207e-01 5.097647905349731445e-01 -2.771965265274047852e-01
-3.341311216354370117e-01 5.296473503112792969e-01 -2.659954130649566650e-01
-3.456668555736541748e-01 5.512270331382751465e-01 -2.535110414028167725e-01
-3.569727540016174316e-01 5.784044265747070312e-01 -2.436095774173736572e-01
-2.919519841670989990e-01 3.745852708816528320e-01 -2.940119206905364990e-01
-3.042956888675689697e-01 4.178779125213623047e-01 -2.869384288787841797e-01
-3.176668286323547363e-01 4.425916671752929688e-01 -2.781376242637634277e-01
-3.295340538024902344e-01 4.647543132305145264e-01 -2.695305049419403076e-01
-3.392558097839355469e-01 4.852724373340606689e-01 -2.610749304294586182e-01
-3.490009903907775879e-01 5.060215592384338379e-01 -2.494514733552932739e-01
-3.574086129665374756e-01 5.305566191673278809e-01 -2.403704226016998291e-01
-3.661082983016967773e-01 5.621300935745239258e-01 -2.304407209157943726e-01
-3.137398660182952881e-01 3.669795095920562744e-01 -2.682414352893829346e-01
-3.313413262367248535e-01 3.850499987602233887e-01 -2.629460394382476807e-01
-3.410363197326660156e-01 4.180425405502319336e-01 -2.560856044292449951e-01
-3.490553200244903564e-01 4.403759241104125977e-01 -2.498288750648498535e-01
-3.556398749351501465e-01 4.602719545364379883e-01 -2.419347763061523438e-01
-3.625307679176330566e-01 4.837802946567535400e-01 -2.324393093585968018e-01
-3.695787191390991211e-01 5.142112970352172852e-01 -2.235945463180541992e-01
-3.772534728050231934e-01 5.469943881034851074e-01 -2.126803696155548096e-01
-3.723681569099426270e-01 1.420684456825256348e-01 3.406861722469329834e-01
-3.791757225990295410e-01 1.808475404977798462e-01 3.330944478511810303e-01
-3.827959597110748291e-01 2.147384583950042725e-01 3.275955021381378174e-01
-3.871816992759704590e-01 2.449953258037567139e-01 3.211182355880737305e-01
-3.924363553524017334e-01 2.759293913841247559e-01 3.128718137741088867e-01
-3.965946137905120850e-01 3.150427341461181641e-01 3.070981502532958984e-01
-3.989323079586029053e-01 3.499472141265869141e-01 3.047092258930206299e-01
-4.012261927127838135e-01 3.790741562843322754e-01 3.011983335018157959e-01
-3.873177468776702881e-01 1.217589303851127625e-01 3.230502903461456299e-01
-3.912581205368041992e-01 1.603095531463623047e-01 3.146862983703613281e-01
-3.951820731163024902e-01 1.959811896085739136e-01 3.080513179302215576e-01
-3.998086154460906982e-01 2.297580391168594360e-01 3.008929491043090820e-01
-4.049401581287384033e-01 2.613676786422729492e-01 2.928088903427124023e-01
-4.093666970729827881e-01 2.958992719650268555e-01 2.863061726093292236e-01
-4.124890565872192383e-01 3.345742225646972656e-01 2.827118039131164551e-01
-4.151246249675750732e-01 3.717730939388275146e-01 2.817032933235168457e-01
-3.976308107376098633e-01 1.047168523073196411e-01 3.057566881179809570e-01
-4.013835787773132324e-01 1.409991234540939331e-01 2.987079620361328125e-01
-4.049497544765472412e-01 1.777646541595458984e-01 2.916599810123443604e-01
-4.095903933048248291e-01 2.118082195520401001e-01 2.837706208229064941e-01
-4.142530262470245361e-01 2.444618791341781616e-01 2.743854522705078125e-01
-4.184371232986450195e-01 2.781416475772857666e-01 2.672122716903686523e-01
-4.226334691047668457e-01 3.198409974575042725e-01 2.606190443038940430e-01
-4.261935353279113770e-01 3.579176068305969238e-01 2.581575810909271240e-01
-4.062469303607940674e-01 8.940066397190093994e-02 2.883096933364868164e-01
-4.103842377662658691e-01 1.231176853179931641e-01 2.829345166683197021e-01
-4.145706295967102051e-01 1.598804444074630737e-01 2.750311791896820068e-01
-4.193210303783416748e-01 1.941527128219604492e-01 2.665794789791107178e-01
-4.240483045578002930e-01 2.271557003259658813e-01 2.567643523216247559e-01
-4.285470545291900635e-01 2.603934705257415771e-01 2.485328763723373413e-01
-4.313620924949645996e-01 3.044268488883972168e-01 2.430188059806823730e-01
-4.323490858078002930e-01 3.439523577690124512e-01 2.402414232492446899e-01
-4.146824479103088379e-01 7.252314686775207520e-02 2.707579731941223145e-01
-4.193681776523590088e-01 1.081931516528129578e-01 2.650905549526214600e-01
-4.245809912681579590e-01 1.409164220094680786e-01 2.586204111576080322e-01
-4.295415282249450684e-01 1.750648915767669678e-01 2.509500086307525635e-01
-4.331042766571044922e-01 2.074909508228302002e-01 2.437022924423217773e-01
-4.352467954158782959e-01 2.421634048223495483e-01 2.367032319307327271e-01
-4.367479979991912842e-01 2.833156585693359375e-01 2.311496138572692871e-01
-4.381089210510253906e-01 3.252117633819580078e-01 2.261393964290618896e-01
-4.239357709884643555e-01 5.751986801624298096e-02 2.542717754840850830e-01
-4.298382401466369629e-01 9.161499142646789551e-02 2.465788871049880981e-01
-4.341690540313720703e-01 1.242199018597602844e-01 2.431086897850036621e-01
-4.364372491836547852e-01 1.564520746469497681e-01 2.386986315250396729e-01
-4.374366104602813721e-01 1.889875531196594238e-01 2.340081930160522461e-01
-4.385081231594085693e-01 2.227621972560882568e-01 2.298295497894287109e-01
-4.404712915420532227e-01 2.640011310577392578e-01 2.204122543334960938e-01
-4.419607520103454590e-01 3.042549490928649902e-01 2.077858597040176392e-01
-4.330060184001922607e-01 5.236391723155975342e-02 2.363080829381942749e-01
-4.377728104591369629e-01 7.753410935401916504e-02 2.304061651229858398e-01
-4.406014978885650635e-01 1.076609343290328979e-01 2.251226603984832764e-01
-4.419723749160766602e-01 1.383424401283264160e-01 2.229231148958206177e-01
-4.424955248832702637e-01 1.693344414234161377e-01 2.199104130268096924e-01
-4.434236884117126465e-01 2.072188854217529297e-01 2.153630554676055908e-01
-4.446773231029510498e-01 2.449790686368942261e-01 2.046353220939636230e-01
-4.472446441650390625e-01 2.853373289108276367e-01 1.873886883258819580e-01
-4.412954747676849365e-01 4.871313273906707764e-02 2.131031155586242676e-01
-4.442100822925567627e-01 6.763361394405364990e-02 2.119026035070419312e-01
-4.466561079025268555e-01 9.223690629005432129e-02 2.037968039512634277e-01
-4.478304386138916016e-01 1.203941255807876587e-01 1.984441280364990234e-01
-4.488852024078369141e-01 1.522636860609054565e-01 1.951293945312500000e-01
-4.499007463455200195e-01 1.898528337478637695e-01 1.885584294795989990e-01
-4.511659741401672363e-01 2.278145700693130493e-01 1.795345842838287354e-01
-4.539956450462341309e-01 2.670680880546569824e-01 1.618314534425735474e-01
4.219036698341369629e-01 6.307415962219238281e-01 2.445728480815887451e-01
4.210885763168334961e-01 6.665838956832885742e-01 2.388547360897064209e-01
4.207833707332611084e-01 7.027420997619628906e-01 2.368144243955612183e-01
4.193456470966339111e-01 7.418764829635620117e-01 2.386417537927627563e-01
4.179704785346984863e-01 7.754714488983154297e-01 2.388727962970733643e-01
4.176907241344451904e-01 8.091741800308227539e-01 2.440695613622665405e-01
4.162032306194305420e-01 8.136898279190063477e-01 2.585168480873107910e-01
4.119972288608551025e-01 8.136282563209533691e-01 2.758285403251647949e-01
4.318967163562774658e-01 5.983144044876098633e-01 2.283370643854141235e-01
4.332906305789947510e-01 6.460743546485900879e-01 2.184955924749374390e-01
4.346195757389068604e-01 6.846830844879150391e-01 2.080078423023223877e-01
4.358191192150115967e-01 7.224791646003723145e-01 2.077187895774841309e-01
4.361769258975982666e-01 7.584629654884338379e-01 2.116316705942153931e-01
4.350859522819519043e-01 7.965058088302612305e-01 2.140081673860549927e-01
4.331717193126678467e-01 8.333218097686767578e-01 2.170433253049850464e-01
4.269898235797882080e-01 8.389907479286193848e-01 2.342078685760498047e-01
4.375126361846923828e-01 5.737628936767578125e-01 2.147532254457473755e-01
4.408327937126159668e-01 6.225510835647583008e-01 1.981598883867263794e-01
4.444148838520050049e-01 6.661136746406555176e-01 1.808060407638549805e-01
4.467530548572540283e-01 7.027002573013305664e-01 1.724926382303237915e-01
4.476517438888549805e-01 7.396936416625976562e-01 1.745637357234954834e-01
4.466439485549926758e-01 7.752006649971008301e-01 1.795281767845153809e-01
4.439060986042022705e-01 8.175851106643676758e-01 1.838099062442779541e-01
4.321841001510620117e-01 8.464051485061645508e-01 2.084470838308334351e-01
4.406878054141998291e-01 5.416592955589294434e-01 2.021699845790863037e-01
4.469901919364929199e-01 5.965093970298767090e-01 1.842831522226333618e-01
4.505159556865692139e-01 6.397501826286315918e-01 1.653433442115783691e-01
4.516332745552062988e-01 6.789577007293701172e-01 1.566097885370254517e-01
4.515084922313690186e-01 7.175116539001464844e-01 1.565767526626586914e-01
4.480576515197753906e-01 7.535707950592041016e-01 1.746480464935302734e-01
4.377174377441406250e-01 7.939180731773376465e-01 1.990185230970382690e-01
4.235160648822784424e-01 8.292831778526306152e-01 2.203429341316223145e-01
4.380565583705902100e-01 5.166336297988891602e-01 1.783709526062011719e-01
4.458910524845123291e-01 5.649543404579162598e-01 1.886908560991287231e-01
4.490648806095123291e-01 6.125134229660034180e-01 1.790543347597122192e-01
4.505468606948852539e-01 6.530263423919677734e-01 1.695208549499511719e-01
4.474269747734069824e-01 6.914736032485961914e-01 1.752172410488128662e-01
4.392637610435485840e-01 7.284625768661499023e-01 1.892657279968261719e-01
4.281802773475646973e-01 7.678736448287963867e-01 2.161276787519454956e-01
4.122855961322784424e-01 8.095272183418273926e-01 2.418633103370666504e-01
4.460380673408508301e-01 5.487477779388427734e-01 1.429590284824371338e-01
4.399051368236541748e-01 5.347383022308349609e-01 1.969175934791564941e-01
4.424441754817962646e-01 5.848270654678344727e-01 2.079982906579971313e-01
4.412359595298767090e-01 6.252136230468750000e-01 2.094351798295974731e-01
4.375234246253967285e-01 6.688863635063171387e-01 2.079069912433624268e-01
4.300182461738586426e-01 7.088261842727661133e-01 2.159859538078308105e-01
4.195720553398132324e-01 7.410416007041931152e-01 2.345288991928100586e-01
4.050773680210113525e-01 7.836700081825256348e-01 2.606557607650756836e-01
4.499064385890960693e-01 6.046811342239379883e-01 1.442786753177642822e-01
4.389810264110565186e-01 5.711683034896850586e-01 1.776641905307769775e-01
4.290972352027893066e-01 5.571472644805908203e-01 2.347759902477264404e-01
4.274706542491912842e-01 6.028963327407836914e-01 2.442384660243988037e-01
4.253455996513366699e-01 6.418681144714355469e-01 2.511973083019256592e-01
4.184528589248657227e-01 6.856193542480468750e-01 2.582903802394866943e-01
4.085101485252380371e-01 7.223082184791564941e-01 2.691695094108581543e-01
3.982722163200378418e-01 7.576743364334106445e-01 2.809348702430725098e-01
4.516815245151519775e-01 6.604347229003906250e-01 1.588301658630371094e-01
4.398403167724609375e-01 6.337637901306152344e-01 2.026597559452056885e-01
4.286614060401916504e-01 5.997802019119262695e-01 2.267124950885772705e-01
4.143297672271728516e-01 5.903874635696411133e-01 2.724376916885375977e-01
4.108465909957885742e-01 6.246792674064636230e-01 2.797951996326446533e-01
4.063424468040466309e-01 6.587828397750854492e-01 2.875393629074096680e-01
3.998513519763946533e-01 6.980392932891845703e-01 2.935169041156768799e-01
3.867819905281066895e-01 7.392993569374084473e-01 3.031567931175231934e-01
2.453819811344146729e-01 4.860098361968994141e-01 4.540503323078155518e-01
2.372531741857528687e-01 5.094565153121948242e-01 4.543883502483367920e-01
2.318168729543685913e-01 5.313020348548889160e-01 4.590263962745666504e-01
2.261345684528350830e-01 5.535840988159179688e-01 4.626155793666839600e-01
2.186936289072036743e-01 5.756462812423706055e-01 4.668624699115753174e-01
2.092328518629074097e-01 5.985387563705444336e-01 4.717482328414916992e-01
1.985877007246017456e-01 6.203467845916748047e-01 4.755461812019348145e-01
1.856405436992645264e-01 6.502353549003601074e-01 4.772098660469055176e-01
2.368747591972351074e-01 4.705673456192016602e-01 4.542163014411926270e-01
2.276247292757034302e-01 4.958471059799194336e-01 4.604895114898681641e-01
2.167566120624542236e-01 5.187248587608337402e-01 4.688052833080291748e-01
2.070498168468475342e-01 5.426037311553955078e-01 4.750011265277862549e-01
1.983961760997772217e-01 5.625473856925964355e-01 4.778259098529815674e-01
1.892447620630264282e-01 5.822393894195556641e-01 4.808880686759948730e-01
1.777538806200027466e-01 6.040915846824645996e-01 4.833119809627532959e-01
1.609171777963638306e-01 6.299627423286437988e-01 4.868530333042144775e-01
2.318966686725616455e-01 4.512943625450134277e-01 4.591456949710845947e-01
2.166024297475814819e-01 4.800756871700286865e-01 4.706883728504180908e-01
2.040890902280807495e-01 5.052810907363891602e-01 4.779813885688781738e-01
1.950998902320861816e-01 5.282582044601440430e-01 4.814389348030090332e-01
1.848736256361007690e-01 5.506459474563598633e-01 4.838190078735351562e-01
1.726994067430496216e-01 5.700362324714660645e-01 4.862393140792846680e-01
1.586647033691406250e-01 5.892018079757690430e-01 4.902672171592712402e-01
1.401812285184860229e-01 6.151794195175170898e-01 4.952301383018493652e-01
2.236278057098388672e-01 4.294509887695312500e-01 4.691067337989807129e-01
2.069407403469085693e-01 4.617367982864379883e-01 4.787857532501220703e-01
1.952199935913085938e-01 4.877988696098327637e-01 4.826173484325408936e-01
1.842928230762481689e-01 5.103916525840759277e-01 4.858427047729492188e-01
1.727801859378814697e-01 5.323477983474731445e-01 4.891190230846405029e-01
1.602424085140228271e-01 5.538876056671142578e-01 4.919509589672088623e-01
1.458154469728469849e-01 5.735826492309570312e-01 4.951733350753784180e-01
1.283868253231048584e-01 6.003417372703552246e-01 4.997776150703430176e-01
2.143176943063735962e-01 4.075418710708618164e-01 4.765196740627288818e-01
1.981409639120101929e-01 4.420127868652343750e-01 4.813160300254821777e-01
1.848163455724716187e-01 4.686515331268310547e-01 4.843192100524902344e-01
1.727772355079650879e-01 4.910095334053039551e-01 4.890570640563964844e-01
1.614602208137512207e-01 5.120271444320678711e-01 4.929725527763366699e-01
1.485477983951568604e-01 5.334514975547790527e-01 4.961765110492706299e-01
1.345437765121459961e-01 5.567283034324645996e-01 4.993751645088195801e-01
1.186156198382377625e-01 5.815865993499755859e-01 5.034166574478149414e-01
2.043904364109039307e-01 3.863489627838134766e-01 4.788264930248260498e-01
1.858488023281097412e-01 4.195024073123931885e-01 4.832826554775238037e-01
1.717455834150314331e-01 4.471445679664611816e-01 4.875458478927612305e-01
1.601943820714950562e-01 4.706043899059295654e-01 4.928752481937408447e-01
1.483727693557739258e-01 4.915489554405212402e-01 4.971081316471099854e-01
1.363063752651214600e-01 5.121652483940124512e-01 5.004768371582031250e-01
1.242808774113655090e-01 5.343004465103149414e-01 5.037767291069030762e-01
1.083782240748405457e-01 5.644200444221496582e-01 5.067415833473205566e-01
1.885123550891876221e-01 3.692547380924224854e-01 4.815624654293060303e-01
1.708087176084518433e-01 3.981444239616394043e-01 4.868910610675811768e-01
1.568416059017181396e-01 4.250770807266235352e-01 4.922381639480590820e-01
1.453860849142074585e-01 4.503409862518310547e-01 4.976277947425842285e-01
1.348683089017868042e-01 4.734204113483428955e-01 5.016791224479675293e-01
1.222357973456382751e-01 4.951883554458618164e-01 5.054352879524230957e-01
1.086203455924987793e-01 5.169505476951599121e-01 5.082851648330688477e-01
9.452266991138458252e-02 5.469926595687866211e-01 5.109485387802124023e-01
1.721682846546173096e-01 3.543199300765991211e-01 4.863979518413543701e-01
1.536250710487365723e-01 3.850649297237396240e-01 4.930376708507537842e-01
1.397701352834701538e-01 4.110748767852783203e-01 5.000408291816711426e-01
1.267401129007339478e-01 4.324950873851776123e-01 5.042589902877807617e-01
1.146131083369255066e-01 4.546742439270019531e-01 5.074831247329711914e-01
1.023793816566467285e-01 4.785371124744415283e-01 5.106657147407531738e-01
9.026503562927246094e-02 5.029392242431640625e-01 5.132275819778442383e-01
7.276941835880279541e-02 5.300620794296264648e-01 5.145390033721923828e-01
3.962307572364807129e-01 -1.972983479499816895e-01 -1.872832775115966797e-01
3.929217755794525146e-01 -1.664456725120544434e-01 -1.924149394035339355e-01
3.913546502590179443e-01 -1.356443613767623901e-01 -1.957378387451171875e-01
3.895707726478576660e-01 -9.250007569789886475e-02 -1.994343698024749756e-01
3.875153064727783203e-01 -5.248957872390747070e-02 -2.033459693193435669e-01
3.853223025798797607e-01 -1.743340492248535156e-02 -2.097997963428497314e-01
3.825995624065399170e-01 8.953183889389038086e-03 -2.162613272666931152e-01
3.761267662048339844e-01 4.007868468761444092e-02 -2.237468957901000977e-01
3.842480778694152832e-01 -2.211817055940628052e-01 -2.062138617038726807e-01
3.817524909973144531e-01 -1.835932135581970215e-01 -2.121609300374984741e-01
3.786179423332214355e-01 -1.556124836206436157e-01 -2.157328426837921143e-01
3.744330704212188721e-01 -1.134910583496093750e-01 -2.214584946632385254e-01
3.700141310691833496e-01 -6.970061361789703369e-02 -2.271649241447448730e-01
3.675743639469146729e-01 -3.155080974102020264e-02 -2.313839942216873169e-01
3.642471134662628174e-01 1.321598887443542480e-03 -2.376179099082946777e-01
3.572092950344085693e-01 3.399248421192169189e-02 -2.468342185020446777e-01
3.717073202133178711e-01 -2.429436445236206055e-01 -2.224181294441223145e-01
3.665158152580261230e-01 -2.011048644781112671e-01 -2.311032861471176147e-01
3.622010350227355957e-01 -1.717324703931808472e-01 -2.378246784210205078e-01
3.573109209537506104e-01 -1.327001303434371948e-01 -2.436771988868713379e-01
3.542343080043792725e-01 -8.980053663253784180e-02 -2.473417818546295166e-01
3.512711524963378906e-01 -4.885852336883544922e-02 -2.502694129943847656e-01
3.470467329025268555e-01 -1.363414525985717773e-02 -2.560225427150726318e-01
3.415350615978240967e-01 2.168817818164825439e-02 -2.641347944736480713e-01
3.584476113319396973e-01 -2.614796757698059082e-01 -2.391739487648010254e-01
3.517945408821105957e-01 -2.201770246028900146e-01 -2.496493756771087646e-01
3.476750254631042480e-01 -1.823731958866119385e-01 -2.558740079402923584e-01
3.439498245716094971e-01 -1.513125896453857422e-01 -2.599331736564636230e-01
3.411855399608612061e-01 -1.106182336807250977e-01 -2.627378106117248535e-01
3.379492461681365967e-01 -7.003109157085418701e-02 -2.652396857738494873e-01
3.327271640300750732e-01 -3.172849118709564209e-02 -2.699850797653198242e-01
3.284395635128021240e-01 4.037380218505859375e-03 -2.772383689880371094e-01
3.421688377857208252e-01 -2.814349532127380371e-01 -2.571068704128265381e-01
3.361374735832214355e-01 -2.393652796745300293e-01 -2.658241689205169678e-01
3.330646157264709473e-01 -1.989363282918930054e-01 -2.711912095546722412e-01
3.304319381713867188e-01 -1.654412150382995605e-01 -2.743346989154815674e-01
3.280746340751647949e-01 -1.292197108268737793e-01 -2.753578424453735352e-01
3.256291747093200684e-01 -8.964759111404418945e-02 -2.779639363288879395e-01
3.213901817798614502e-01 -4.776453971862792969e-02 -2.828976511955261230e-01
3.156093060970306396e-01 -1.093731820583343506e-02 -2.905119657516479492e-01
3.270713090896606445e-01 -2.997496724128723145e-01 -2.734880447387695312e-01
3.230996131896972656e-01 -2.577669620513916016e-01 -2.796368002891540527e-01
3.200285732746124268e-01 -2.168552577495574951e-01 -2.837796211242675781e-01
3.184120953083038330e-01 -1.819254159927368164e-01 -2.861757874488830566e-01
3.149057626724243164e-01 -1.495935469865798950e-01 -2.902494370937347412e-01
3.102568686008453369e-01 -1.107300966978073120e-01 -2.949021756649017334e-01
3.054910302162170410e-01 -7.057468593120574951e-02 -3.000034093856811523e-01
2.986291050910949707e-01 -3.251330554485321045e-02 -3.057278990745544434e-01
3.057094812393188477e-01 -3.191547989845275879e-01 -2.943625152111053467e-01
3.051291406154632568e-01 -2.753215432167053223e-01 -2.963969111442565918e-01
3.032934665679931641e-01 -2.389468550682067871e-01 -2.992820441722869873e-01
3.015412688255310059e-01 -1.988783478736877441e-01 -3.018965721130371094e-01
2.982326745986938477e-01 -1.651219576597213745e-01 -3.064259886741638184e-01
2.901448011398315430e-01 -1.301592439413070679e-01 -3.129345774650573730e-01
2.840792238712310791e-01 -9.583833813667297363e-02 -3.163281977176666260e-01
2.792673408985137939e-01 -6.025339663028717041e-02 -3.190795779228210449e-01
2.690116167068481445e-01 -3.352711200714111328e-01 -3.136690258979797363e-01
2.820429801940917969e-01 -2.913096547126770020e-01 -3.131485581398010254e-01
2.810616195201873779e-01 -2.561277747154235840e-01 -3.153932690620422363e-01
2.796854674816131592e-01 -2.178969234228134155e-01 -3.182260990142822266e-01
2.763831019401550293e-01 -1.826931238174438477e-01 -3.202759325504302979e-01
2.694576680660247803e-01 -1.488138437271118164e-01 -3.248817324638366699e-01
2.616801857948303223e-01 -1.162942647933959961e-01 -3.282038867473602295e-01
2.522264122962951660e-01 -8.582158386707305908e-02 -3.320550918579101562e-01
-4.020649194717407227e-01 -3.693709969520568848e-01 2.899431884288787842e-01
-4.057169556617736816e-01 -3.285585343837738037e-01 2.786649465560913086e-01
-4.084567427635192871e-01 -2.941331565380096436e-01 2.673271894454956055e-01
-4.118871986865997314e-01 -2.537960708141326904e-01 2.540574967861175537e-01
-4.163454174995422363e-01 -2.121428549289703369e-01 2.441105097532272339e-01
-4.206391274929046631e-01 -1.725658774375915527e-01 2.375492304563522339e-01
-4.246693253517150879e-01 -1.210989654064178467e-01 2.316424101591110229e-01
-4.287180304527282715e-01 -6.879895925521850586e-02 2.286298871040344238e-01
-4.119555354118347168e-01 -3.890001773834228516e-01 2.689825296401977539e-01
-4.162276983261108398e-01 -3.510407209396362305e-01 2.564637362957000732e-01
-4.199651181697845459e-01 -3.145132660865783691e-01 2.447558492422103882e-01
-4.241548776626586914e-01 -2.781234085559844971e-01 2.341508418321609497e-01
-4.283551871776580811e-01 -2.335609197616577148e-01 2.232705354690551758e-01
-4.321675002574920654e-01 -1.917340755462646484e-01 2.162252068519592285e-01
-4.367388486862182617e-01 -1.432832032442092896e-01 2.097148895263671875e-01
-4.383856356143951416e-01 -8.903072774410247803e-02 2.060670107603073120e-01
-4.213904142379760742e-01 -4.066659808158874512e-01 2.479683011770248413e-01
-4.259145855903625488e-01 -3.703934252262115479e-01 2.381015419960021973e-01
-4.300431013107299805e-01 -3.325838446617126465e-01 2.269218862056732178e-01
-4.343149960041046143e-01 -2.966877222061157227e-01 2.160599082708358765e-01
-4.392588436603546143e-01 -2.549200057983398438e-01 2.035732418298721313e-01
-4.421476125717163086e-01 -2.136137336492538452e-01 1.950591802597045898e-01
-4.434186220169067383e-01 -1.656681299209594727e-01 1.898034960031509399e-01
-4.444895386695861816e-01 -1.086051464080810547e-01 1.838586032390594482e-01
-4.297126531600952148e-01 -4.234813153743743896e-01 2.289428263902664185e-01
-4.349763989448547363e-01 -3.880726695060729980e-01 2.186370342969894409e-01
-4.400566518306732178e-01 -3.526248335838317871e-01 2.091858088970184326e-01
-4.430812001228332520e-01 -3.156736195087432861e-01 1.984210759401321411e-01
-4.457363486289978027e-01 -2.776882946491241455e-01 1.890753209590911865e-01
-4.477367103099822998e-01 -2.319427132606506348e-01 1.799676865339279175e-01
-4.489615857601165771e-01 -1.892367601394653320e-01 1.723504960536956787e-01
-4.492252171039581299e-01 -1.307852715253829956e-01 1.631153672933578491e-01
-4.376608729362487793e-01 -4.385614991188049316e-01 2.112035453319549561e-01
-4.427498579025268555e-01 -4.036490917205810547e-01 2.001584023237228394e-01
-4.463154077529907227e-01 -3.702446222305297852e-01 1.918592154979705811e-01
-4.483206272125244141e-01 -3.342125117778778076e-01 1.827544569969177246e-01
-4.499773681163787842e-01 -2.977081239223480225e-01 1.754984408617019653e-01
-4.512296020984649658e-01 -2.537588775157928467e-01 1.686306297779083252e-01
-4.524212181568145752e-01 -2.093575447797775269e-01 1.581108868122100830e-01
-4.524946212768554688e-01 -1.574231088161468506e-01 1.440481841564178467e-01
-4.436779916286468506e-01 -4.509674012660980225e-01 1.928177624940872192e-01
-4.484376609325408936e-01 -4.180571436882019043e-01 1.806433796882629395e-01
-4.508123099803924561e-01 -3.862286806106567383e-01 1.721895784139633179e-01
-4.526563584804534912e-01 -3.534640967845916748e-01 1.656209379434585571e-01
-4.535893499851226807e-01 -3.171983361244201660e-01 1.598998457193374634e-01
-4.540603458881378174e-01 -2.754570245742797852e-01 1.521656513214111328e-01
-4.546760022640228271e-01 -2.322641909122467041e-01 1.423535495996475220e-01
-4.553231596946716309e-01 -1.817059963941574097e-01 1.275579035282135010e-01
-4.499678015708923340e-01 -4.551892280578613281e-01 1.602430343627929688e-01
-4.542030096054077148e-01 -4.317515492439270020e-01 1.599807739257812500e-01
-4.559182226657867432e-01 -3.976451754570007324e-01 1.502144485712051392e-01
-4.565193951129913330e-01 -3.683416247367858887e-01 1.390054225921630859e-01
-4.574098289012908936e-01 -3.363233208656311035e-01 1.320546567440032959e-01
-4.576035439968109131e-01 -2.966014444828033447e-01 1.264743804931640625e-01
-4.578059911727905273e-01 -2.545681595802307129e-01 1.203280836343765259e-01
-4.596207439899444580e-01 -2.069460600614547729e-01 1.069146245718002319e-01
-4.564407169818878174e-01 -4.385040402412414551e-01 1.112240478396415710e-01
-4.600940346717834473e-01 -4.316157102584838867e-01 1.220202967524528503e-01
-4.620058536529541016e-01 -4.074071049690246582e-01 1.182667985558509827e-01
-4.634173810482025146e-01 -3.768417239189147949e-01 1.080505996942520142e-01
-4.634657800197601318e-01 -3.487848341464996338e-01 1.010401397943496704e-01
-4.640367925167083740e-01 -3.182068765163421631e-01 9.616525471210479736e-02
-4.644393026828765869e-01 -2.770285606384277344e-01 9.155808389186859131e-02
-4.640299677848815918e-01 -2.335105091333389282e-01 8.508163690567016602e-02
2.639020383358001709e-01 -1.201428174972534180e-01 -3.303591907024383545e-01
2.585339546203613281e-01 -8.677127212285995483e-02 -3.344597816467285156e-01
2.534222006797790527e-01 -5.467402189970016479e-02 -3.371727764606475830e-01
2.469170689582824707e-01 -1.976958289742469788e-02 -3.407205045223236084e-01
2.401854395866394043e-01 2.233966439962387085e-02 -3.447602093219757080e-01
2.334350049495697021e-01 6.569438427686691284e-02 -3.498808443546295166e-01
2.265817373991012573e-01 9.796106070280075073e-02 -3.555585741996765137e-01
2.138741910457611084e-01 1.315607726573944092e-01 -3.678191900253295898e-01
2.492569983005523682e-01 -1.373337954282760620e-01 -3.392781615257263184e-01
2.400611937046051025e-01 -1.058907657861709595e-01 -3.441110551357269287e-01
2.357728481292724609e-01 -7.224999368190765381e-02 -3.481015861034393311e-01
2.290028631687164307e-01 -3.579321876168251038e-02 -3.523639440536499023e-01
2.197231650352478027e-01 4.601158201694488525e-03 -3.586597740650177002e-01
2.115792334079742432e-01 4.865788668394088745e-02 -3.648495972156524658e-01
2.007791399955749512e-01 8.477284759283065796e-02 -3.725045919418334961e-01
1.849713325500488281e-01 1.202021315693855286e-01 -3.823461532592773438e-01
2.373799234628677368e-01 -1.591358184814453125e-01 -3.471800684928894043e-01
2.274840921163558960e-01 -1.232463642954826355e-01 -3.527748584747314453e-01
2.191359251737594604e-01 -9.252136200666427612e-02 -3.576754033565521240e-01
2.116424143314361572e-01 -5.319552868604660034e-02 -3.634358048439025879e-01
2.021702527999877930e-01 -1.239719241857528687e-02 -3.714577555656433105e-01
1.903144121170043945e-01 3.006900101900100708e-02 -3.789002597332000732e-01
1.770804077386856079e-01 7.303395122289657593e-02 -3.847640752792358398e-01
1.623439490795135498e-01 1.095716431736946106e-01 -3.927766084671020508e-01
2.262638658285140991e-01 -1.793435215950012207e-01 -3.542154133319854736e-01
2.151359170675277710e-01 -1.424924433231353760e-01 -3.603346049785614014e-01
2.058401107788085938e-01 -1.075873225927352905e-01 -3.655039072036743164e-01
1.974574029445648193e-01 -7.012301683425903320e-02 -3.735865354537963867e-01
1.856830269098281860e-01 -2.935142442584037781e-02 -3.806986510753631592e-01
1.732071489095687866e-01 1.089509576559066772e-02 -3.863364756107330322e-01
1.618227958679199219e-01 5.272091180086135864e-02 -3.914849460124969482e-01
1.469715386629104614e-01 9.489395469427108765e-02 -3.977156579494476318e-01
2.140370011329650879e-01 -2.008575499057769775e-01 -3.611892759799957275e-01
2.016731500625610352e-01 -1.624963879585266113e-01 -3.677032589912414551e-01
1.913423240184783936e-01 -1.223615184426307678e-01 -3.764593899250030518e-01
1.813107281923294067e-01 -8.781215548515319824e-02 -3.819437325000762939e-01
1.695907413959503174e-01 -4.612375423312187195e-02 -3.874934315681457520e-01
1.573215126991271973e-01 -7.135353982448577881e-03 -3.926283419132232666e-01
1.474652588367462158e-01 3.159657865762710571e-02 -3.968858420848846436e-01
1.341905295848846436e-01 7.467318326234817505e-02 -4.014718234539031982e-01
1.952999979257583618e-01 -2.236048579216003418e-01 -3.714307546615600586e-01
1.837135851383209229e-01 -1.792431771755218506e-01 -3.789823353290557861e-01
1.720115244388580322e-01 -1.397930681705474854e-01 -3.843697607517242432e-01
1.625223159790039062e-01 -1.059482395648956299e-01 -3.885756134986877441e-01
1.511791944503784180e-01 -6.822389364242553711e-02 -3.934329748153686523e-01
1.427479535341262817e-01 -2.803119644522666931e-02 -3.978327214717864990e-01
1.336172074079513550e-01 8.216865360736846924e-03 -4.013196527957916260e-01
1.231128126382827759e-01 4.614342004060745239e-02 -4.045953154563903809e-01
1.659454703330993652e-01 -2.424258887767791748e-01 -3.815000057220458984e-01
1.569390743970870972e-01 -1.930225789546966553e-01 -3.875306248664855957e-01
1.472134888172149658e-01 -1.549532115459442139e-01 -3.922284245491027832e-01
1.390799283981323242e-01 -1.203031688928604126e-01 -3.961439132690429688e-01
1.340788155794143677e-01 -8.729821443557739258e-02 -3.995002806186676025e-01
1.276979446411132812e-01 -5.142727121710777283e-02 -4.023938179016113281e-01
1.195818036794662476e-01 -1.489859446883201599e-02 -4.053789079189300537e-01
1.090933680534362793e-01 2.127695828676223755e-02 -4.086559414863586426e-01
1.251683384180068970e-01 -2.559040188789367676e-01 -3.936550915241241455e-01
1.277267783880233765e-01 -2.101289629936218262e-01 -3.960417807102203369e-01
1.227220296859741211e-01 -1.695768237113952637e-01 -4.005653262138366699e-01
1.182747632265090942e-01 -1.366767585277557373e-01 -4.032354056835174561e-01
1.148050427436828613e-01 -1.089032441377639771e-01 -4.044105708599090576e-01
1.079350560903549194e-01 -7.590627670288085938e-02 -4.069969654083251953e-01
9.915059804916381836e-02 -4.029892757534980774e-02 -4.098773598670959473e-01
8.954855799674987793e-02 -1.200921833515167236e-03 -4.123369455337524414e-01
2.833312749862670898e-01 1.886331140995025635e-01 4.167320132255554199e-01
2.777246236801147461e-01 2.101127803325653076e-01 4.202561378479003906e-01
2.709382474422454834e-01 2.359807938337326050e-01 4.283842146396636963e-01
2.617574334144592285e-01 2.609886527061462402e-01 4.365934133529663086e-01
2.512833476066589355e-01 2.846845984458923340e-01 4.466473162174224854e-01
2.368630170822143555e-01 3.082043528556823730e-01 4.537061452865600586e-01
2.235041707754135132e-01 3.283678889274597168e-01 4.590235352516174316e-01
2.098020017147064209e-01 3.538603484630584717e-01 4.632478058338165283e-01
2.752308249473571777e-01 1.713482439517974854e-01 4.236509203910827637e-01
2.601137757301330566e-01 1.945227384567260742e-01 4.375934004783630371e-01
2.475984394550323486e-01 2.198581844568252563e-01 4.492465853691101074e-01
2.369034141302108765e-01 2.458466440439224243e-01 4.535823166370391846e-01
2.240356504917144775e-01 2.682490944862365723e-01 4.593704938888549805e-01
2.131170928478240967e-01 2.933794260025024414e-01 4.651061296463012695e-01
2.025470733642578125e-01 3.142987489700317383e-01 4.723956882953643799e-01
1.922431141138076782e-01 3.382851481437683105e-01 4.782660603523254395e-01
2.626426219940185547e-01 1.515332460403442383e-01 4.386555850505828857e-01
2.467281818389892578e-01 1.783989220857620239e-01 4.521777927875518799e-01
2.342781722545623779e-01 2.016191929578781128e-01 4.578282237052917480e-01
2.214424908161163330e-01 2.277209609746932983e-01 4.624380469322204590e-01
2.099116444587707520e-01 2.500421404838562012e-01 4.693880975246429443e-01
1.985517442226409912e-01 2.770666480064392090e-01 4.762831032276153564e-01
1.885515153408050537e-01 3.014654815196990967e-01 4.821523725986480713e-01
1.734650880098342896e-01 3.249291777610778809e-01 4.888361394405364990e-01
2.506939172744750977e-01 1.306868791580200195e-01 4.505361318588256836e-01
2.350311875343322754e-01 1.593770831823348999e-01 4.585774242877960205e-01
2.227033525705337524e-01 1.817361712455749512e-01 4.671220183372497559e-01
2.104859948158264160e-01 2.047901153564453125e-01 4.734042882919311523e-01
1.980923116207122803e-01 2.305454760789871216e-01 4.782481193542480469e-01
1.870557367801666260e-01 2.562720179557800293e-01 4.839409887790679932e-01
1.758886575698852539e-01 2.848963141441345215e-01 4.891556501388549805e-01
1.591401249170303345e-01 3.117683529853820801e-01 4.937700927257537842e-01
2.384841293096542358e-01 1.091397553682327271e-01 4.572621583938598633e-01
2.233780473470687866e-01 1.383149027824401855e-01 4.673364758491516113e-01
2.105021178722381592e-01 1.623035073280334473e-01 4.759018123149871826e-01
1.987706422805786133e-01 1.843397915363311768e-01 4.823653101921081543e-01
1.876645684242248535e-01 2.064415961503982544e-01 4.870896637439727783e-01
1.760497093200683594e-01 2.333761602640151978e-01 4.912133812904357910e-01
1.635906249284744263e-01 2.631352543830871582e-01 4.939365684986114502e-01
1.461140215396881104e-01 2.967283427715301514e-01 4.979368746280670166e-01
2.247799336910247803e-01 8.965153992176055908e-02 4.634864330291748047e-01
2.108366787433624268e-01 1.163451969623565674e-01 4.735039770603179932e-01
1.982949525117874146e-01 1.429593414068222046e-01 4.813272356986999512e-01
1.874730736017227173e-01 1.655566394329071045e-01 4.878092706203460693e-01
1.755565106868743896e-01 1.863007545471191406e-01 4.930785298347473145e-01
1.630592048168182373e-01 2.100549191236495972e-01 4.962912201881408691e-01
1.507126688957214355e-01 2.400905191898345947e-01 4.984923005104064941e-01
1.305587887763977051e-01 2.766248881816864014e-01 5.025508403778076172e-01
2.118831276893615723e-01 7.101793587207794189e-02 4.701401591300964355e-01
1.972883194684982300e-01 9.641105681657791138e-02 4.799549579620361328e-01
1.843777149915695190e-01 1.233971044421195984e-01 4.879791140556335449e-01
1.707919538021087646e-01 1.452832221984863281e-01 4.942588508129119873e-01
1.583469659090042114e-01 1.667741984128952026e-01 4.987801015377044678e-01
1.451342105865478516e-01 1.918861120939254761e-01 5.011282563209533691e-01
1.282992959022521973e-01 2.178053259849548340e-01 5.038110017776489258e-01
1.096295863389968872e-01 2.585467696189880371e-01 5.071635246276855469e-01
1.952549666166305542e-01 5.595940351486206055e-02 4.800975918769836426e-01
1.797597855329513550e-01 8.446048200130462646e-02 4.891287684440612793e-01
1.631016433238983154e-01 1.071058064699172974e-01 4.968313872814178467e-01
1.476567387580871582e-01 1.285420209169387817e-01 5.014620423316955566e-01
1.325670480728149414e-01 1.516163945198059082e-01 5.039840936660766602e-01
1.181291937828063965e-01 1.760749965906143188e-01 5.067499876022338867e-01
1.026131212711334229e-01 2.049777209758758545e-01 5.096740722656250000e-01
8.297054469585418701e-02 2.393896877765655518e-01 5.128155350685119629e-01
6.240510195493698120e-02 5.952975153923034668e-01 5.081995129585266113e-01
4.840067774057388306e-02 6.130974292755126953e-01 5.108600854873657227e-01
3.679952770471572876e-02 6.290003061294555664e-01 5.133363008499145508e-01
2.797373384237289429e-02 6.467524766921997070e-01 5.140690803527832031e-01
1.571965962648391724e-02 6.635186076164245605e-01 5.139963030815124512e-01
3.043591976165771484e-03 6.792532801628112793e-01 5.139160752296447754e-01
-7.462024688720703125e-03 6.964106559753417969e-01 5.132895112037658691e-01
-2.088485658168792725e-02 7.204802036285400391e-01 5.118097662925720215e-01
3.992945700883865356e-02 5.852900147438049316e-01 5.134241580963134766e-01
2.631291002035140991e-02 6.014933586120605469e-01 5.151769518852233887e-01
1.376698166131973267e-02 6.181321740150451660e-01 5.154561400413513184e-01
3.593422472476959229e-03 6.352528333663940430e-01 5.154158473014831543e-01
