-5.991131067276000977e-03 4.178082942962646484e-01 5.112070441246032715e-01
6.499408930540084839e-02 2.168629020452499390e-01 5.113417506217956543e-01
5.136079341173171997e-02 2.421174943447113037e-01 5.128431916236877441e-01
3.906282037496566772e-02 2.687936425209045410e-01 5.137330889701843262e-01
2.382568269968032837e-02 2.943495213985443115e-01 5.149458646774291992e-01
1.128666475415229797e-02 3.173959553241729736e-01 5.157009959220886230e-01
1.770071685314178467e-03 3.393458425998687744e-01 5.157210230827331543e-01
-1.082105934619903564e-02 3.617448508739471436e-01 5.150881409645080566e-01
-2.667833492159843445e-02 3.949980139732360840e-01 5.132001638412475586e-01
4.653324931859970093e-02 2.042056173086166382e-01 5.130586624145507812e-01
3.297539800405502319e-02 2.304515838623046875e-01 5.139486789703369141e-01
1.716179400682449341e-02 2.561151385307312012e-01 5.151523947715759277e-01
4.830528050661087036e-03 2.802174985408782959e-01 5.156487822532653809e-01
-4.911508411169052124e-03 3.036241233348846436e-01 5.157240033149719238e-01
-1.477885991334915161e-02 3.233911097049713135e-01 5.157864093780517578e-01
-2.934614568948745728e-02 3.441274166107177734e-01 5.151895880699157715e-01
-4.467960074543952942e-02 3.731240034103393555e-01 5.129302740097045898e-01
3.056667000055313110e-02 1.869176924228668213e-01 5.132274031639099121e-01
1.465442031621932983e-02 2.167780101299285889e-01 5.149696469306945801e-01
8.921474218368530273e-04 2.416144311428070068e-01 5.154250264167785645e-01
-9.394265711307525635e-03 2.631030380725860596e-01 5.156957507133483887e-01
-1.810522377490997314e-02 2.835455834865570068e-01 5.159421563148498535e-01
-3.081014752388000488e-02 3.060494661331176758e-01 5.149937272071838379e-01
-4.536546766757965088e-02 3.265778720378875732e-01 5.133097171783447266e-01
-6.271491199731826782e-02 3.550496697425842285e-01 5.103753209114074707e-01
1.503314077854156494e-02 1.690654307603836060e-01 5.133514404296875000e-01
-4.731379449367523193e-04 1.997591555118560791e-01 5.147135257720947266e-01
-1.265328377485275269e-02 2.259692400693893433e-01 5.151804089546203613e-01
-2.197888307273387909e-02 2.478559315204620361e-01 5.153163075447082520e-01
-3.210221230983734131e-02 2.658163607120513916e-01 5.147355794906616211e-01
-4.613199830055236816e-02 2.887457013130187988e-01 5.130833387374877930e-01
-6.063549593091011047e-02 3.093636929988861084e-01 5.112420916557312012e-01
-8.109806478023529053e-02 3.384140729904174805e-01 5.048877000808715820e-01
2.257268875837326050e-03 1.477848887443542480e-01 5.130516290664672852e-01
-1.338213682174682617e-02 1.813917160034179688e-01 5.138786435127258301e-01
-2.564000897109508514e-02 2.074118107557296753e-01 5.142500400543212891e-01
-3.800614178180694580e-02 2.292062044143676758e-01 5.136774182319641113e-01
-4.882953315973281860e-02 2.487753033638000488e-01 5.126105546951293945e-01
-6.276743113994598389e-02 2.672609090805053711e-01 5.109819173812866211e-01
-8.035862445831298828e-02 2.920005321502685547e-01 5.056464076042175293e-01
-9.527601301670074463e-02 3.207406997680664062e-01 5.007521510124206543e-01
-1.461870223283767700e-02 1.311363279819488525e-01 5.129228234291076660e-01
-3.217236697673797607e-02 1.599144637584686279e-01 5.121935009956359863e-01
-4.660139605402946472e-02 1.875915229320526123e-01 5.117141008377075195e-01
-5.945382267236709595e-02 2.096094489097595215e-01 5.106430649757385254e-01
-7.186333835124969482e-02 2.283158302307128906e-01 5.084395408630371094e-01
-8.611451089382171631e-02 2.480834126472473145e-01 5.052232146263122559e-01
-1.000490486621856689e-01 2.692066133022308350e-01 5.004671812057495117e-01
-1.117444187402725220e-01 3.022476732730865479e-01 4.968891441822052002e-01
-4.930736124515533447e-02 1.183245778083801270e-01 5.113871693611145020e-01
-6.690626591444015503e-02 1.431996524333953857e-01 5.092296600341796875e-01
-8.302301913499832153e-02 1.717570424079895020e-01 5.048370361328125000e-01
-9.472973644733428955e-02 1.940488368272781372e-01 5.023161172866821289e-01
-1.041684895753860474e-01 2.140180319547653198e-01 5.005042552947998047e-01
-1.117686480283737183e-01 2.316946089267730713e-01 4.986763000488281250e-01
-1.224522516131401062e-01 2.534589171409606934e-01 4.950852096080780029e-01
-1.312373280525207520e-01 2.805029451847076416e-01 4.918758571147918701e-01
4.614142477512359619e-01 2.352008223533630371e-01 1.244953498244285583e-01
4.613107442855834961e-01 2.687519788742065430e-01 1.211406514048576355e-01
4.617489576339721680e-01 2.965424060821533203e-01 1.155514642596244812e-01
4.613229930400848389e-01 3.182230889797210693e-01 1.133124902844429016e-01
4.609331786632537842e-01 3.459197282791137695e-01 1.078060641884803772e-01
4.624328315258026123e-01 3.699152469635009766e-01 1.064298152923583984e-01
4.649265706539154053e-01 3.902440369129180908e-01 1.109423264861106873e-01
4.669757187366485596e-01 4.134058356285095215e-01 1.237603500485420227e-01
4.611558914184570312e-01 2.082459628582000732e-01 1.001652777194976807e-01
4.604168236255645752e-01 2.526633441448211670e-01 9.455889463424682617e-02
4.607501029968261719e-01 2.805443108081817627e-01 8.964908868074417114e-02
4.608757793903350830e-01 3.057213723659515381e-01 8.526372909545898438e-02
4.611899554729461670e-01 3.397340178489685059e-01 8.338493108749389648e-02
4.623971581459045410e-01 3.683567047119140625e-01 7.822043448686599731e-02
4.639295041561126709e-01 3.970991373062133789e-01 7.934452593326568604e-02
4.668809175491333008e-01 4.218254089355468750e-01 8.953756839036941528e-02
4.615554809570312500e-01 1.848668009042739868e-01 8.393471688032150269e-02
4.618372619152069092e-01 2.293271124362945557e-01 7.553805410861968994e-02
4.618289470672607422e-01 2.645105123519897461e-01 6.789090484380722046e-02
4.620397984981536865e-01 2.913518548011779785e-01 6.241678446531295776e-02
4.627037048339843750e-01 3.274546861648559570e-01 5.822949856519699097e-02
4.627548754215240479e-01 3.599627315998077393e-01 5.793783813714981079e-02
4.628140926361083984e-01 3.891524076461791992e-01 5.375436693429946899e-02
4.645147025585174561e-01 4.177595973014831543e-01 6.127282977104187012e-02
4.614332616329193115e-01 1.644388139247894287e-01 7.050960510969161987e-02
4.616066515445709229e-01 2.081024497747421265e-01 6.027387827634811401e-02
4.622723758220672607e-01 2.467777878046035767e-01 4.892981052398681641e-02
4.628424942493438721e-01 2.783272862434387207e-01 4.390501230955123901e-02
4.634495377540588379e-01 3.051853775978088379e-01 3.971420228481292725e-02
4.625559747219085693e-01 3.454565405845642090e-01 3.330071270465850830e-02
4.612430334091186523e-01 3.768714368343353271e-01 3.178600221872329712e-02
4.614886343479156494e-01 4.074015021324157715e-01 3.216502815485000610e-02
4.617234766483306885e-01 1.452509760856628418e-01 5.215714871883392334e-02
4.617891311645507812e-01 1.881059110164642334e-01 4.405448585748672485e-02
4.627629220485687256e-01 2.294201254844665527e-01 3.394842892885208130e-02
4.633368253707885742e-01 2.605593800544738770e-01 2.617668546736240387e-02
4.632171690464019775e-01 2.882019281387329102e-01 2.216410823166370392e-02
4.616236686706542969e-01 3.238118290901184082e-01 1.397136878222227097e-02
4.603649973869323730e-01 3.599219918251037598e-01 6.489438004791736603e-03
4.587790369987487793e-01 3.916279077529907227e-01 7.895766757428646088e-03
4.628105461597442627e-01 1.282584518194198608e-01 2.810140140354633331e-02
4.620171487331390381e-01 1.698041111230850220e-01 2.528533898293972015e-02
4.622098207473754883e-01 2.105113565921783447e-01 1.711050234735012054e-02
4.622103571891784668e-01 2.436014115810394287e-01 9.805251844227313995e-03
4.615716338157653809e-01 2.720071971416473389e-01 1.219765283167362213e-03
4.605736434459686279e-01 3.041634559631347656e-01 -6.234397180378437042e-03
4.596605896949768066e-01 3.386716246604919434e-01 -1.270332932472229004e-02
4.584339857101440430e-01 3.746666014194488525e-01 -1.621815003454685211e-02
4.622571468353271484e-01 1.088293194770812988e-01 6.695601157844066620e-03
4.616046547889709473e-01 1.520084142684936523e-01 2.342528663575649261e-03
4.610956907272338867e-01 1.929496079683303833e-01 -5.969790741801261902e-03
4.606525301933288574e-01 2.280815392732620239e-01 -1.264058984816074371e-02
4.604378938674926758e-01 2.584341764450073242e-01 -1.864940486848354340e-02
4.599636495113372803e-01 2.865920066833496094e-01 -2.487253025174140930e-02
4.593116939067840576e-01 3.194112181663513184e-01 -3.091566450893878937e-02
4.583751857280731201e-01 3.519673347473144531e-01 -3.480721265077590942e-02
4.568785130977630615e-01 1.275824606418609619e-01 -4.013957828283309937e-02
4.581560492515563965e-01 1.416700482368469238e-01 -2.306125126779079437e-02
4.579931497573852539e-01 1.801679432392120361e-01 -3.116980381309986115e-02
4.581911861896514893e-01 2.173210084438323975e-01 -3.659746050834655762e-02
4.586730599403381348e-01 2.447001636028289795e-01 -3.927826881408691406e-02
4.589375853538513184e-01 2.721067965030670166e-01 -4.319835454225540161e-02
4.584112465381622314e-01 3.017598092555999756e-01 -5.085446685552597046e-02
4.569480717182159424e-01 3.357836008071899414e-01 -5.768291652202606201e-02
-3.052316606044769287e-01 4.423753917217254639e-01 4.044701159000396729e-01
-3.126036524772644043e-01 4.700592458248138428e-01 3.968510329723358154e-01
-3.216516077518463135e-01 4.958200156688690186e-01 3.876881599426269531e-01
-3.303936719894409180e-01 5.257816314697265625e-01 3.799925744533538818e-01
-3.405890762805938721e-01 5.628948211669921875e-01 3.720278739929199219e-01
-3.472015559673309326e-01 5.927854776382446289e-01 3.668830096721649170e-01
-3.488958775997161865e-01 6.287459135055541992e-01 3.606116175651550293e-01
-3.483070433139801025e-01 6.553876399993896484e-01 3.593160510063171387e-01
-3.343497216701507568e-01 4.167758524417877197e-01 3.740355372428894043e-01
-3.410677015781402588e-01 4.493403136730194092e-01 3.684225976467132568e-01
-3.491896986961364746e-01 4.776766300201416016e-01 3.599136471748352051e-01
-3.583463430404663086e-01 5.074269771575927734e-01 3.520186543464660645e-01
-3.639299571514129639e-01 5.442776679992675781e-01 3.463320434093475342e-01
-3.672724664211273193e-01 5.833361744880676270e-01 3.419275879859924316e-01
-3.719968795776367188e-01 6.212461590766906738e-01 3.360673785209655762e-01
-3.740871548652648926e-01 6.599712967872619629e-01 3.316871821880340576e-01
-3.540191948413848877e-01 3.925183713436126709e-01 3.519340753555297852e-01
-3.601748347282409668e-01 4.251563251018524170e-01 3.460683822631835938e-01
-3.669542372226715088e-01 4.574860632419586182e-01 3.399934470653533936e-01
-3.732175230979919434e-01 4.919093847274780273e-01 3.317945599555969238e-01
-3.785289525985717773e-01 5.235577225685119629e-01 3.253645002841949463e-01
-3.833101987838745117e-01 5.658150315284729004e-01 3.198265731334686279e-01
-3.904785811901092529e-01 6.104045510292053223e-01 3.096569180488586426e-01
-3.952386379241943359e-01 6.516061425209045410e-01 3.043172359466552734e-01
-3.699561655521392822e-01 3.725339174270629883e-01 3.324399888515472412e-01
-3.743183612823486328e-01 4.030676484107971191e-01 3.284870088100433350e-01
-3.796786963939666748e-01 4.407067894935607910e-01 3.224714994430541992e-01
-3.860778212547302246e-01 4.771937131881713867e-01 3.129937350749969482e-01
-3.923024833202362061e-01 5.077511072158813477e-01 3.038803040981292725e-01
-3.987734913825988770e-01 5.465502738952636719e-01 2.956283986568450928e-01
-4.077770709991455078e-01 5.958187580108642578e-01 2.849850058555603027e-01
-4.134168028831481934e-01 6.418043375015258789e-01 2.756108343601226807e-01
-3.819096088409423828e-01 3.579081296920776367e-01 3.149872124195098877e-01
-3.864992558956146240e-01 3.884387612342834473e-01 3.089016675949096680e-01
-3.922578990459442139e-01 4.227992594242095947e-01 3.016412258148193359e-01
-3.986350595951080322e-01 4.618190526962280273e-01 2.934818863868713379e-01
-4.053574204444885254e-01 4.978670775890350342e-01 2.834585011005401611e-01
-4.115677773952484131e-01 5.314662456512451172e-01 2.738544642925262451e-01
-4.201091527938842773e-01 5.804890394210815430e-01 2.630783319473266602e-01
-4.265456497669219971e-01 6.260864734649658203e-01 2.532384991645812988e-01
-3.942365646362304688e-01 3.469749987125396729e-01 2.947302460670471191e-01
-3.997637629508972168e-01 3.767638206481933594e-01 2.885230779647827148e-01
-4.060434103012084961e-01 4.079435765743255615e-01 2.799222171306610107e-01
-4.125876426696777344e-01 4.412287771701812744e-01 2.716002166271209717e-01
-4.186761975288391113e-01 4.810546040534973145e-01 2.629626095294952393e-01
-4.240054190158843994e-01 5.217391252517700195e-01 2.529606521129608154e-01
-4.292788505554199219e-01 5.650995969772338867e-01 2.407813072204589844e-01
-4.334295690059661865e-01 6.093434095382690430e-01 2.226761877536773682e-01
-4.079972803592681885e-01 3.356130123138427734e-01 2.717795968055725098e-01
-4.139516651630401611e-01 3.643863201141357422e-01 2.651755809783935547e-01
-4.192941486835479736e-01 3.951023221015930176e-01 2.592920958995819092e-01
-4.255623817443847656e-01 4.260544776916503906e-01 2.514786124229431152e-01
-4.289596080780029297e-01 4.631197750568389893e-01 2.452015131711959839e-01
-4.315603077411651611e-01 5.085868835449218750e-01 2.294767200946807861e-01
-4.353272020816802979e-01 5.528450012207031250e-01 2.110417187213897705e-01
-4.417278766632080078e-01 5.923408269882202148e-01 1.913038045167922974e-01
-4.248011410236358643e-01 3.212863206863403320e-01 2.450978755950927734e-01
-4.278028607368469238e-01 3.515107333660125732e-01 2.395808547735214233e-01
-4.310581982135772705e-01 3.821897804737091064e-01 2.307716906070709229e-01
-4.352238774299621582e-01 4.112606048583984375e-01 2.182834446430206299e-01
-4.380115270614624023e-01 4.475975036621093750e-01 2.077537477016448975e-01
-4.414356946945190430e-01 4.892149865627288818e-01 1.951220333576202393e-01
-4.460174441337585449e-01 5.356349349021911621e-01 1.774137467145919800e-01
-4.521151781082153320e-01 5.761296749114990234e-01 1.590220928192138672e-01
4.360862970352172852e-01 -6.985756754875183105e-01 1.935356259346008301e-01
4.277945458889007568e-01 -6.999822258949279785e-01 2.188718616962432861e-01
4.231190681457519531e-01 -6.999800801277160645e-01 2.467073351144790649e-01
4.150533676147460938e-01 -6.995117664337158203e-01 2.781655788421630859e-01
4.085889756679534912e-01 -6.995458602905273438e-01 3.022696375846862793e-01
4.004750847816467285e-01 -6.997621059417724609e-01 3.236964344978332520e-01
3.926456868648529053e-01 -7.001597881317138672e-01 3.449134230613708496e-01
3.818381130695343018e-01 -7.010730504989624023e-01 3.730819225311279297e-01
4.250645041465759277e-01 -7.003386616706848145e-01 1.759758293628692627e-01
4.096466302871704102e-01 -7.009060382843017578e-01 2.097845226526260376e-01
3.994652628898620605e-01 -7.013523578643798828e-01 2.363711297512054443e-01
3.909168541431427002e-01 -7.007228732109069824e-01 2.656790018081665039e-01
3.819495439529418945e-01 -7.002153992652893066e-01 2.966935038566589355e-01
3.720199763774871826e-01 -7.003654241561889648e-01 3.220483064651489258e-01
3.610297441482543945e-01 -7.005704045295715332e-01 3.429820835590362549e-01
3.473570346832275391e-01 -7.010170817375183105e-01 3.671313822269439697e-01
4.103205502033233643e-01 -7.013509869575500488e-01 1.637385338544845581e-01
3.925792872905731201e-01 -7.023879289627075195e-01 1.983078122138977051e-01
3.808245062828063965e-01 -7.021723985671997070e-01 2.278959304094314575e-01
3.737827241420745850e-01 -7.018935084342956543e-01 2.530159056186676025e-01
3.659968078136444092e-01 -7.015988826751708984e-01 2.790227234363555908e-01
3.525675535202026367e-01 -7.009839415550231934e-01 3.074087500572204590e-01
3.352641165256500244e-01 -7.010877132415771484e-01 3.369349539279937744e-01
3.157968819141387939e-01 -7.018767595291137695e-01 3.680886924266815186e-01
3.998182415962219238e-01 -7.024180293083190918e-01 1.534639596939086914e-01
3.837462663650512695e-01 -7.032527923583984375e-01 1.812666952610015869e-01
3.712243437767028809e-01 -7.034402489662170410e-01 2.103151381015777588e-01
3.620118498802185059e-01 -7.026911377906799316e-01 2.366730570793151855e-01
3.515485227108001709e-01 -7.023203372955322266e-01 2.636293172836303711e-01
3.337912559509277344e-01 -7.026559114456176758e-01 2.924177646636962891e-01
3.168887794017791748e-01 -7.021837830543518066e-01 3.229936659336090088e-01
2.973939776420593262e-01 -7.026394009590148926e-01 3.584692478179931641e-01
3.913503885269165039e-01 -7.046316266059875488e-01 1.373184025287628174e-01
3.762428462505340576e-01 -7.039180397987365723e-01 1.668063849210739136e-01
3.615668416023254395e-01 -7.040521502494812012e-01 1.918701827526092529e-01
3.507381379604339600e-01 -7.037177681922912598e-01 2.194168567657470703e-01
3.383398056030273438e-01 -7.029619812965393066e-01 2.472452074289321899e-01
3.227260112762451172e-01 -7.029101252555847168e-01 2.766398787498474121e-01
3.069050610065460205e-01 -7.032249569892883301e-01 3.074177205562591553e-01
2.862734794616699219e-01 -7.026431560516357422e-01 3.413120508193969727e-01
3.833548724651336670e-01 -7.054920196533203125e-01 1.153052300214767456e-01
3.685280978679656982e-01 -7.055234313011169434e-01 1.492637544870376587e-01
3.529800474643707275e-01 -7.051625847816467285e-01 1.770655065774917603e-01
3.374292850494384766e-01 -7.046368122100830078e-01 2.024995684623718262e-01
3.252407610416412354e-01 -7.039588689804077148e-01 2.303741723299026489e-01
3.108484148979187012e-01 -7.033343911170959473e-01 2.611046731472015381e-01
2.953143715858459473e-01 -7.031769156455993652e-01 2.904669344425201416e-01
2.725217342376708984e-01 -7.032005190849304199e-01 3.246083855628967285e-01
3.735731542110443115e-01 -7.066916823387145996e-01 9.266962110996246338e-02
3.574728071689605713e-01 -7.060634493827819824e-01 1.324705034494400024e-01
3.377168774604797363e-01 -7.062286138534545898e-01 1.669981181621551514e-01
3.207328915596008301e-01 -7.060363888740539551e-01 1.945521533489227295e-01
3.069297075271606445e-01 -7.046552896499633789e-01 2.198803722858428955e-01
2.921515703201293945e-01 -7.038021087646484375e-01 2.500316202640533447e-01
2.741575539112091064e-01 -7.031895518302917480e-01 2.797223031520843506e-01
2.462437003850936890e-01 -7.033715844154357910e-01 3.143228292465209961e-01
3.528327047824859619e-01 -7.075568437576293945e-01 6.434573233127593994e-02
3.359533548355102539e-01 -7.069100141525268555e-01 1.096223145723342896e-01
3.192101716995239258e-01 -7.064275145530700684e-01 1.488158255815505981e-01
3.043692409992218018e-01 -7.065884470939636230e-01 1.826031357049942017e-01
2.858986258506774902e-01 -7.061718106269836426e-01 2.085565328598022461e-01
2.681169807910919189e-01 -7.039808630943298340e-01 2.365504205226898193e-01
2.436209321022033691e-01 -7.035109400749206543e-01 2.663879990577697754e-01
2.098777294158935547e-01 -7.030664086341857910e-01 3.009108603000640869e-01
4.511640071868896484e-01 -6.671154499053955078e-01 1.914762854576110840e-01
4.514795243740081787e-01 -6.371221542358398438e-01 1.737575083971023560e-01
4.541489481925964355e-01 -6.133387088775634766e-01 1.544716358184814453e-01
4.560272097587585449e-01 -5.892766714096069336e-01 1.420280337333679199e-01
4.572224020957946777e-01 -5.507830977439880371e-01 1.359188407659530640e-01
4.583934843540191650e-01 -5.060998201370239258e-01 1.292248368263244629e-01
4.587481915950775146e-01 -4.645628333091735840e-01 1.255673170089721680e-01
4.584320783615112305e-01 -4.224665760993957520e-01 1.229400783777236938e-01
4.550638794898986816e-01 -6.839633584022521973e-01 1.689730882644653320e-01
4.557245969772338867e-01 -6.581962704658508301e-01 1.469786763191223145e-01
4.575215280055999756e-01 -6.302272677421569824e-01 1.252004355192184448e-01
4.587189853191375732e-01 -6.064285039901733398e-01 1.143295988440513611e-01
4.599978923797607422e-01 -5.747852325439453125e-01 1.067915409803390503e-01
4.606598615646362305e-01 -5.250299572944641113e-01 1.008847057819366455e-01
4.618110954761505127e-01 -4.745450019836425781e-01 9.657467901706695557e-02
4.613649845123291016e-01 -4.251710772514343262e-01 9.236278384923934937e-02
4.555487334728240967e-01 -6.972320079803466797e-01 1.444374620914459229e-01
4.591948688030242920e-01 -6.746779084205627441e-01 1.282907128334045410e-01
4.587098360061645508e-01 -6.529571413993835449e-01 1.097430586814880371e-01
4.597136974334716797e-01 -6.259015798568725586e-01 9.427114576101303101e-02
4.609846770763397217e-01 -5.923125743865966797e-01 8.518359810113906860e-02
4.623306691646575928e-01 -5.539212822914123535e-01 7.725652307271957397e-02
4.630105793476104736e-01 -4.987996220588684082e-01 7.321295887231826782e-02
4.621057212352752686e-01 -4.452654421329498291e-01 7.030101120471954346e-02
4.583245813846588135e-01 -6.977531313896179199e-01 1.032872498035430908e-01
4.583033919334411621e-01 -6.945426464080810547e-01 1.116127669811248779e-01
4.608419537544250488e-01 -6.701935529708862305e-01 9.896051138639450073e-02
4.611675739288330078e-01 -6.465440988540649414e-01 8.157447725534439087e-02
4.629297256469726562e-01 -6.161345839500427246e-01 6.976021081209182739e-02
4.642866551876068115e-01 -5.770339965820312500e-01 6.093410775065422058e-02
4.627371430397033691e-01 -5.361793637275695801e-01 5.463678017258644104e-02
4.613347351551055908e-01 -4.778676927089691162e-01 5.296626314520835876e-02
4.590027630329132080e-01 -6.977072954177856445e-01 5.689055472612380981e-02
4.580055475234985352e-01 -7.000785470008850098e-01 8.722378313541412354e-02
4.627068042755126953e-01 -6.892620921134948730e-01 7.978108525276184082e-02
4.629588425159454346e-01 -6.665438413619995117e-01 7.086393982172012329e-02
4.639811813831329346e-01 -6.405850052833557129e-01 5.870996415615081787e-02
4.647324085235595703e-01 -6.037750244140625000e-01 4.695244133472442627e-02
4.631141424179077148e-01 -5.659289360046386719e-01 3.909018635749816895e-02
4.596847891807556152e-01 -5.177670121192932129e-01 3.473620861768722534e-02
4.588571488857269287e-01 -6.960277557373046875e-01 1.760520040988922119e-03
4.556576311588287354e-01 -7.040769457817077637e-01 3.329857438802719116e-02
4.578673243522644043e-01 -7.021839618682861328e-01 6.352533400058746338e-02
4.624148309230804443e-01 -6.853587627410888672e-01 5.505735054612159729e-02
4.632614254951477051e-01 -6.639269590377807617e-01 4.956389963626861572e-02
4.637808799743652344e-01 -6.370425224304199219e-01 3.713492304086685181e-02
4.626700282096862793e-01 -5.952732563018798828e-01 2.302001789212226868e-02
4.596755206584930420e-01 -5.534703731536865234e-01 1.368515193462371826e-02
4.579680562019348145e-01 -6.918673515319824219e-01 -3.817854821681976318e-02
4.516170322895050049e-01 -7.046046853065490723e-01 -1.802524924278259277e-02
4.558985829353332520e-01 -7.071879506111145020e-01 1.787839084863662720e-02
4.583605527877807617e-01 -7.015420794486999512e-01 3.745006024837493896e-02
4.627793133258819580e-01 -6.826839447021484375e-01 2.913273870944976807e-02
4.637407362461090088e-01 -6.636162400245666504e-01 2.059923484921455383e-02
4.630837440490722656e-01 -6.340757608413696289e-01 1.237951219081878662e-03
4.610251784324645996e-01 -5.906118750572204590e-01 -1.213812828063964844e-02
4.524171650409698486e-01 -6.899883151054382324e-01 -6.423118710517883301e-02
4.446183443069458008e-01 -6.946982741355895996e-01 -3.268053382635116577e-02
4.416851997375488281e-01 -7.022203803062438965e-01 -1.395934820175170898e-02
4.451177716255187988e-01 -7.050340771675109863e-01 1.815644651651382446e-02
4.470703899860382080e-01 -6.984061598777770996e-01 3.555193915963172913e-02
4.515447020530700684e-01 -6.825248003005981445e-01 2.109085023403167725e-02
4.521501362323760986e-01 -6.634545326232910156e-01 1.432126760482788086e-02
4.499841332435607910e-01 -6.346584558486938477e-01 1.230119913816452026e-02
3.087216317653656006e-01 -7.048921585083007812e-01 3.222857415676116943e-01
2.844829261302947998e-01 -7.050660848617553711e-01 3.399844467639923096e-01
2.624629437923431396e-01 -7.045251727104187012e-01 3.558122217655181885e-01
2.420076280832290649e-01 -7.052347660064697266e-01 3.773526847362518311e-01
2.185505628585815430e-01 -7.054614424705505371e-01 3.972019851207733154e-01
1.928744018077850342e-01 -7.054544687271118164e-01 4.136436283588409424e-01
1.703512817621231079e-01 -7.055602073669433594e-01 4.304972290992736816e-01
1.487662941217422485e-01 -7.059748172760009766e-01 4.493220150470733643e-01
2.685858607292175293e-01 -7.040699124336242676e-01 2.988598346710205078e-01
2.464101165533065796e-01 -7.047891020774841309e-01 3.266603648662567139e-01
2.262664139270782471e-01 -7.052339315414428711e-01 3.441316783428192139e-01
2.040286511182785034e-01 -7.050777077674865723e-01 3.633404076099395752e-01
1.779327690601348877e-01 -7.048097848892211914e-01 3.850336074829101562e-01
1.525174677371978760e-01 -7.050523757934570312e-01 4.024497866630554199e-01
1.327921450138092041e-01 -7.053478956222534180e-01 4.191492795944213867e-01
1.134307831525802612e-01 -7.057542800903320312e-01 4.413685798645019531e-01
2.390704452991485596e-01 -7.047313451766967773e-01 2.802992761135101318e-01
2.177462279796600342e-01 -7.050325870513916016e-01 3.139648735523223877e-01
1.957390755414962769e-01 -7.049343585968017578e-01 3.335388302803039551e-01
1.701446771621704102e-01 -7.046378850936889648e-01 3.537282347679138184e-01
1.448825001716613770e-01 -7.048052549362182617e-01 3.717338740825653076e-01
1.240541040897369385e-01 -7.049978971481323242e-01 3.890782296657562256e-01
1.071010008454322815e-01 -7.052573561668395996e-01 4.063636362552642822e-01
8.736351877450942993e-02 -7.056003808975219727e-01 4.273674488067626953e-01
2.178202122449874878e-01 -7.051843404769897461e-01 2.577960789203643799e-01
1.938195526599884033e-01 -7.049257159233093262e-01 2.911398708820343018e-01
1.667335331439971924e-01 -7.047384977340698242e-01 3.170041739940643311e-01
1.432174295186996460e-01 -7.048176527023315430e-01 3.386726379394531250e-01
1.224354952573776245e-01 -7.048605084419250488e-01 3.561194539070129395e-01
1.041993424296379089e-01 -7.050256729125976562e-01 3.717155456542968750e-01
8.542233705520629883e-02 -7.050193548202514648e-01 3.902356624603271484e-01
6.075049191713333130e-02 -7.052847146987915039e-01 4.119563698768615723e-01
2.000277936458587646e-01 -7.051475644111633301e-01 2.271654605865478516e-01
1.713188439607620239e-01 -7.051829695701599121e-01 2.610875666141510010e-01
1.461840271949768066e-01 -7.049728035926818848e-01 2.900926470756530762e-01
1.231193095445632935e-01 -7.046865224838256836e-01 3.162777721881866455e-01
1.052807196974754333e-01 -7.050225734710693359e-01 3.416762948036193848e-01
8.739782869815826416e-02 -7.050573825836181641e-01 3.574266135692596436e-01
6.685930490493774414e-02 -7.050569057464599609e-01 3.751738965511322021e-01
3.893746063113212585e-02 -7.049266099929809570e-01 3.960930109024047852e-01
1.771607846021652222e-01 -7.058162689208984375e-01 1.996217072010040283e-01
1.524458378553390503e-01 -7.053534984588623047e-01 2.291054427623748779e-01
1.322590708732604980e-01 -7.052792906761169434e-01 2.628298401832580566e-01
1.109859272837638855e-01 -7.049162983894348145e-01 2.917175889015197754e-01
8.975409716367721558e-02 -7.049915194511413574e-01 3.197956681251525879e-01
6.876917183399200439e-02 -7.051619291305541992e-01 3.425592780113220215e-01
4.720690846443176270e-02 -7.050248384475708008e-01 3.591986298561096191e-01
1.626580953598022461e-02 -7.049646973609924316e-01 3.813406527042388916e-01
1.534480899572372437e-01 -7.061675786972045898e-01 1.797358393669128418e-01
1.344959139823913574e-01 -7.056236863136291504e-01 2.065203636884689331e-01
1.155249029397964478e-01 -7.052426934242248535e-01 2.361732274293899536e-01
9.640005975961685181e-02 -7.052698135375976562e-01 2.673154473304748535e-01
7.512680441141128540e-02 -7.051716446876525879e-01 2.945885956287384033e-01
5.110269039869308472e-02 -7.052894234657287598e-01 3.214665353298187256e-01
2.576461434364318848e-02 -7.049698829650878906e-01 3.434554338455200195e-01
-1.049856841564178467e-02 -7.049465179443359375e-01 3.664060235023498535e-01
1.270817369222640991e-01 -7.070682644844055176e-01 1.635846197605133057e-01
1.082322448492050171e-01 -7.061713933944702148e-01 1.884673982858657837e-01
8.959782123565673828e-02 -7.050985693931579590e-01 2.116146832704544067e-01
6.981191039085388184e-02 -7.051833271980285645e-01 2.398926615715026855e-01
4.573206603527069092e-02 -7.053292393684387207e-01 2.664340138435363770e-01
1.888406276702880859e-02 -7.053406834602355957e-01 2.922172546386718750e-01
-1.083138585090637207e-02 -7.057085037231445312e-01 3.211401402950286865e-01
-4.748596251010894775e-02 -7.051087617874145508e-01 3.512587547302246094e-01
3.829350173473358154e-01 -7.025062441825866699e-01 9.352926164865493774e-02
3.655427396297454834e-01 -7.028882503509521484e-01 1.189613342285156250e-01
3.477627038955688477e-01 -7.034380435943603516e-01 1.403280198574066162e-01
3.294559717178344727e-01 -7.037826180458068848e-01 1.577284634113311768e-01
3.114533424377441406e-01 -7.040625214576721191e-01 1.793297529220581055e-01
2.973330616950988770e-01 -7.047277092933654785e-01 2.016350030899047852e-01
2.800309062004089355e-01 -7.051035165786743164e-01 2.183505892753601074e-01
2.561182975769042969e-01 -7.055472731590270996e-01 2.386211156845092773e-01
3.599003553390502930e-01 -7.026581764221191406e-01 6.823419034481048584e-02
3.400156497955322266e-01 -7.030279040336608887e-01 9.533450007438659668e-02
3.204928636550903320e-01 -7.035942673683166504e-01 1.194819509983062744e-01
3.021566271781921387e-01 -7.036741375923156738e-01 1.412204056978225708e-01
2.842305600643157959e-01 -7.038760781288146973e-01 1.596704423427581787e-01
2.672783136367797852e-01 -7.044074535369873047e-01 1.808240562677383423e-01
2.495297938585281372e-01 -7.051377892494201660e-01 2.025626599788665771e-01
2.273561358451843262e-01 -7.053193449974060059e-01 2.235128283500671387e-01
3.356723189353942871e-01 -7.038198709487915039e-01 4.643074050545692444e-02
3.159319758415222168e-01 -7.036087512969970703e-01 7.295300066471099854e-02
2.977421879768371582e-01 -7.034366130828857422e-01 9.813299775123596191e-02
2.803986072540283203e-01 -7.034214735031127930e-01 1.213086396455764771e-01
2.633643448352813721e-01 -7.036823630332946777e-01 1.429155319929122925e-01
2.451920211315155029e-01 -7.042372822761535645e-01 1.612354218959808350e-01
2.260216772556304932e-01 -7.048866748809814453e-01 1.837456524372100830e-01
2.063053846359252930e-01 -7.053291201591491699e-01 2.088208794593811035e-01
3.153151273727416992e-01 -7.041182518005371094e-01 2.737692743539810181e-02
2.968717813491821289e-01 -7.040591239929199219e-01 5.133767426013946533e-02
2.798890769481658936e-01 -7.035095095634460449e-01 7.711089402437210083e-02
2.630501687526702881e-01 -7.033978700637817383e-01 1.025235131382942200e-01
2.446802407503128052e-01 -7.036901116371154785e-01 1.251874119043350220e-01
2.247365415096282959e-01 -7.041260004043579102e-01 1.429373174905776978e-01
2.073698341846466064e-01 -7.046529054641723633e-01 1.649226248264312744e-01
1.876530498266220093e-01 -7.050246000289916992e-01 1.898111104965209961e-01
3.022119998931884766e-01 -7.038605213165283203e-01 3.203280270099639893e-03
2.819624245166778564e-01 -7.042517662048339844e-01 3.349480405449867249e-02
2.635671496391296387e-01 -7.037867903709411621e-01 5.549589917063713074e-02
2.459732145071029663e-01 -7.036097049713134766e-01 8.138614147901535034e-02
2.263610959053039551e-01 -7.037319540977478027e-01 1.063894927501678467e-01
2.070317268371582031e-01 -7.040382027626037598e-01 1.252565830945968628e-01
1.911337971687316895e-01 -7.043601274490356445e-01 1.427444368600845337e-01
1.700166612863540649e-01 -7.047957777976989746e-01 1.676190495491027832e-01
2.881705760955810547e-01 -7.033277750015258789e-01 -2.645605057477951050e-02
2.681177258491516113e-01 -7.039558291435241699e-01 9.449578821659088135e-03
2.487165629863739014e-01 -7.040985226631164551e-01 3.563075512647628784e-02
2.313750684261322021e-01 -7.037340998649597168e-01 5.747072398662567139e-02
2.136882394552230835e-01 -7.036388516426086426e-01 8.314272016286849976e-02
1.924026608467102051e-01 -7.036781907081604004e-01 1.045289039611816406e-01
1.714733392000198364e-01 -7.038098573684692383e-01 1.208396181464195251e-01
1.424594521522521973e-01 -7.043954730033874512e-01 1.445807665586471558e-01
2.673786878585815430e-01 -7.030263543128967285e-01 -5.067814141511917114e-02
2.479987889528274536e-01 -7.034438252449035645e-01 -1.562580466270446777e-02
2.287488430738449097e-01 -7.038574814796447754e-01 1.978798210620880127e-02
2.105146050453186035e-01 -7.040016651153564453e-01 4.476343095302581787e-02
1.918255686759948730e-01 -7.037260532379150391e-01 6.731678545475006104e-02
1.707503050565719604e-01 -7.037962675094604492e-01 8.563630282878875732e-02
1.471079140901565552e-01 -7.038035988807678223e-01 1.041973158717155457e-01
1.144777238368988037e-01 -7.041074633598327637e-01 1.292160153388977051e-01
2.375452816486358643e-01 -7.026276588439941406e-01 -6.714410334825515747e-02
2.198307067155838013e-01 -7.027204036712646484e-01 -3.025007992982864380e-02
2.005728930234909058e-01 -7.032408714294433594e-01 3.129415214061737061e-03
1.798858940601348877e-01 -7.039403915405273438e-01 3.329564630985260010e-02
1.583596020936965942e-01 -7.040145993232727051e-01 5.105697363615036011e-02
1.321175098419189453e-01 -7.038778066635131836e-01 7.046991586685180664e-02
1.033910661935806274e-01 -7.039499282836914062e-01 8.907078951597213745e-02
6.857851147651672363e-02 -7.042167186737060547e-01 1.155586242675781250e-01
1.539111882448196411e-01 2.979045212268829346e-01 -3.878342509269714355e-01
1.470991522073745728e-01 3.261650800704956055e-01 -3.938208818435668945e-01
1.419971883296966553e-01 3.507600128650665283e-01 -3.976934254169464111e-01
1.351158916950225830e-01 3.808264732360839844e-01 -4.017705917358398438e-01
1.199057102203369141e-01 4.115403592586517334e-01 -4.058649539947509766e-01
1.011230200529098511e-01 4.366585016250610352e-01 -4.096838831901550293e-01
8.293469995260238647e-02 4.601570367813110352e-01 -4.141339659690856934e-01
6.256985664367675781e-02 4.956321716308593750e-01 -4.181189537048339844e-01
1.368668377399444580e-01 2.814821600914001465e-01 -3.942191600799560547e-01
1.260716021060943604e-01 3.130298852920532227e-01 -3.999990820884704590e-01
1.170227825641632080e-01 3.380947113037109375e-01 -4.038835763931274414e-01
1.074211597442626953e-01 3.612655401229858398e-01 -4.073518812656402588e-01
9.259933233261108398e-02 3.877994716167449951e-01 -4.107176661491394043e-01
7.426536083221435547e-02 4.184101819992065430e-01 -4.157356619834899902e-01
5.289320647716522217e-02 4.465860724449157715e-01 -4.187015295028686523e-01
3.215625509619712830e-02 4.769546985626220703e-01 -4.199432730674743652e-01
1.200592964887619019e-01 2.646976411342620850e-01 -4.006243050098419189e-01
1.020154953002929688e-01 2.994715273380279541e-01 -4.057144820690155029e-01
8.864355832338333130e-02 3.255718052387237549e-01 -4.100973010063171387e-01
7.767781615257263184e-02 3.461350798606872559e-01 -4.118790030479431152e-01
6.334277987480163574e-02 3.690918087959289551e-01 -4.140202701091766357e-01
4.593534022569656372e-02 3.975069224834442139e-01 -4.180746674537658691e-01
2.818306162953376770e-02 4.284557104110717773e-01 -4.207431674003601074e-01
8.606504648923873901e-03 4.595256447792053223e-01 -4.216821789741516113e-01
1.040430516004562378e-01 2.494794279336929321e-01 -4.063606858253479004e-01
8.574849367141723633e-02 2.792889475822448730e-01 -4.108543097972869873e-01
6.860782206058502197e-02 3.069204390048980713e-01 -4.128387868404388428e-01
5.467599630355834961e-02 3.300808370113372803e-01 -4.143936634063720703e-01
4.018062353134155273e-02 3.519952893257141113e-01 -4.160192310810089111e-01
2.594962157309055328e-02 3.765215575695037842e-01 -4.180105328559875488e-01
1.174042746424674988e-02 4.084690213203430176e-01 -4.207627177238464355e-01
-1.124754548072814941e-02 4.415601789951324463e-01 -4.226016998291015625e-01
8.536436408758163452e-02 2.399313449859619141e-01 -4.117679893970489502e-01
6.453244388103485107e-02 2.629195451736450195e-01 -4.143896400928497314e-01
5.010867118835449219e-02 2.908007800579071045e-01 -4.161843955516815186e-01
3.711862117052078247e-02 3.138259351253509521e-01 -4.166503846645355225e-01
2.527655474841594696e-02 3.357247114181518555e-01 -4.171320199966430664e-01
1.366641186177730560e-02 3.592039644718170166e-01 -4.178858399391174316e-01
-2.716839313507080078e-03 3.833229839801788330e-01 -4.193294048309326172e-01
-3.018963336944580078e-02 4.204360544681549072e-01 -4.216936528682708740e-01
6.406970322132110596e-02 2.301328927278518677e-01 -4.146124720573425293e-01
4.378592967987060547e-02 2.517420649528503418e-01 -4.177533090114593506e-01
2.971973270177841187e-02 2.743486762046813965e-01 -4.186719357967376709e-01
1.774964481592178345e-02 2.990703284740447998e-01 -4.189240336418151855e-01
6.222136318683624268e-03 3.195289373397827148e-01 -4.186351895332336426e-01
-4.211101680994033813e-03 3.400396704673767090e-01 -4.179738163948059082e-01
-1.960925012826919556e-02 3.636660277843475342e-01 -4.183630347251892090e-01
-4.500660672783851624e-02 3.977941870689392090e-01 -4.210364222526550293e-01
3.799240291118621826e-02 2.199294418096542358e-01 -4.180429577827453613e-01
1.931442134082317352e-02 2.431203573942184448e-01 -4.198093116283416748e-01
3.818646073341369629e-04 2.642965912818908691e-01 -4.201191365718841553e-01
-1.084724068641662598e-02 2.860973477363586426e-01 -4.197361767292022705e-01
-2.421908825635910034e-02 3.043353259563446045e-01 -4.192990660667419434e-01
-3.503704443573951721e-02 3.228353559970855713e-01 -4.197499752044677734e-01
-4.749875143170356750e-02 3.461640477180480957e-01 -4.197399914264678955e-01
-6.784595549106597900e-02 3.821543753147125244e-01 -4.201955497264862061e-01
2.294018864631652832e-03 2.079953551292419434e-01 -4.188198149204254150e-01
-1.702652499079704285e-02 2.372594326734542847e-01 -4.205938279628753662e-01
-3.496590629220008850e-02 2.596710026264190674e-01 -4.222359955310821533e-01
-4.639347270131111145e-02 2.773212790489196777e-01 -4.223845303058624268e-01
-6.014489009976387024e-02 2.951637208461761475e-01 -4.217818081378936768e-01
-6.914407014846801758e-02 3.105190992355346680e-01 -4.211686253547668457e-01
-8.065941929817199707e-02 3.317060470581054688e-01 -4.201548397541046143e-01
-9.534980356693267822e-02 3.627184033393859863e-01 -4.186941683292388916e-01
-9.513303637504577637e-02 -1.863826811313629150e-02 -4.142428040504455566e-01
-1.093763709068298340e-01 1.011888310313224792e-02 -4.120844006538391113e-01
-1.255831718444824219e-01 3.541444987058639526e-02 -4.068622589111328125e-01
-1.394069343805313110e-01 6.072808057069778442e-02 -4.030399322509765625e-01
-1.534140110015869141e-01 8.977676182985305786e-02 -3.991039097309112549e-01
-1.671815812587738037e-01 1.150015965104103088e-01 -3.931303322315216064e-01
-1.825856715440750122e-01 1.408214271068572998e-01 -3.875957727432250977e-01
-2.011496126651763916e-01 1.641627848148345947e-01 -3.781733214855194092e-01
-1.159930080175399780e-01 -4.235747829079627991e-02 -4.094501435756683350e-01
-1.343044042587280273e-01 -1.147327199578285217e-02 -4.038604497909545898e-01
-1.514528691768646240e-01 1.366264745593070984e-02 -3.985382318496704102e-01
-1.651278585195541382e-01 3.679249435663223267e-02 -3.945363163948059082e-01
-1.785444319248199463e-01 6.235434859991073608e-02 -3.901926279067993164e-01
-1.918420195579528809e-01 9.328026324510574341e-02 -3.839542269706726074e-01
-2.037732303142547607e-01 1.191979572176933289e-01 -3.779064118862152100e-01
-2.210666537284851074e-01 1.439749598503112793e-01 -3.675444722175598145e-01
-1.374588012695312500e-01 -7.192150503396987915e-02 -4.019304811954498291e-01
-1.584897935390472412e-01 -4.030176997184753418e-02 -3.966763317584991455e-01
-1.724968403577804565e-01 -1.107380911707878113e-02 -3.914232850074768066e-01
-1.830698549747467041e-01 1.315616443753242493e-02 -3.871044814586639404e-01
-1.946803033351898193e-01 3.669088333845138550e-02 -3.816882967948913574e-01
-2.074931114912033081e-01 6.575737148523330688e-02 -3.753200769424438477e-01
-2.206494659185409546e-01 9.524068981409072876e-02 -3.697250485420227051e-01
-2.392681986093521118e-01 1.242148801684379578e-01 -3.573903143405914307e-01
-1.571831703186035156e-01 -1.019073277711868286e-01 -3.977423906326293945e-01
-1.729543954133987427e-01 -7.055382430553436279e-02 -3.920741975307464600e-01
-1.838981807231903076e-01 -3.831531852483749390e-02 -3.857886493206024170e-01
-1.941874623298645020e-01 -1.385773718357086182e-02 -3.806932568550109863e-01
-2.066091001033782959e-01 1.216290518641471863e-02 -3.748919069766998291e-01
-2.186201512813568115e-01 3.814204782247543335e-02 -3.688931763172149658e-01
-2.338710576295852661e-01 6.686880439519882202e-02 -3.619753718376159668e-01
-2.516619861125946045e-01 1.039637103676795959e-01 -3.500374555587768555e-01
-1.726373583078384399e-01 -1.304356157779693604e-01 -3.931969106197357178e-01
-1.840829551219940186e-01 -9.992670267820358276e-02 -3.865779042243957520e-01
-1.950701475143432617e-01 -6.941646337509155273e-02 -3.807208836078643799e-01
-2.061389684677124023e-01 -3.912594169378280640e-02 -3.745559751987457275e-01
-2.182733416557312012e-01 -1.336752250790596008e-02 -3.685673177242279053e-01
-2.304347455501556396e-01 1.192234829068183899e-02 -3.626265823841094971e-01
-2.450373470783233643e-01 3.887369483709335327e-02 -3.538939654827117920e-01
-2.595984041690826416e-01 7.939571887254714966e-02 -3.433908522129058838e-01
-1.863791346549987793e-01 -1.526898443698883057e-01 -3.878168165683746338e-01
-1.990627199411392212e-01 -1.267258524894714355e-01 -3.801237344741821289e-01
-2.101891934871673584e-01 -9.906670451164245605e-02 -3.739066123962402344e-01
-2.211004346609115601e-01 -6.890594214200973511e-02 -3.675537109375000000e-01
-2.331515848636627197e-01 -3.967275843024253845e-02 -3.592802286148071289e-01
-2.465867400169372559e-01 -1.559649407863616943e-02 -3.504946231842041016e-01
-2.559090852737426758e-01 1.328762248158454895e-02 -3.422756791114807129e-01
-2.690898776054382324e-01 5.354405194520950317e-02 -3.341270685195922852e-01
-2.062688767910003662e-01 -1.738169193267822266e-01 -3.764632344245910645e-01
-2.196979522705078125e-01 -1.480719149112701416e-01 -3.672030866146087646e-01
-2.331912815570831299e-01 -1.219711825251579285e-01 -3.575831651687622070e-01
-2.452847957611083984e-01 -9.489146620035171509e-02 -3.487353324890136719e-01
-2.557085752487182617e-01 -6.775508075952529907e-02 -3.410340547561645508e-01
-2.632201313972473145e-01 -4.064566642045974731e-02 -3.341221511363983154e-01
-2.707279622554779053e-01 -1.136829331517219543e-02 -3.295080661773681641e-01
-2.801931500434875488e-01 3.025854378938674927e-02 -3.218693137168884277e-01
-2.315637469291687012e-01 -1.912487447261810303e-01 -3.593338727951049805e-01
-2.454373091459274292e-01 -1.695033013820648193e-01 -3.484476506710052490e-01
-2.568462789058685303e-01 -1.452277004718780518e-01 -3.391706347465515137e-01
-2.665543556213378906e-01 -1.187773719429969788e-01 -3.328621089458465576e-01
-2.740442156791687012e-01 -9.273871779441833496e-02 -3.271530270576477051e-01
-2.801864743232727051e-01 -6.325705349445343018e-02 -3.207329809665679932e-01
-2.845415174961090088e-01 -3.373858332633972168e-02 -3.153491616249084473e-01
-2.910033464431762695e-01 4.351321607828140259e-03 -3.097303509712219238e-01
-2.659071683883666992e-01 -5.476859807968139648e-01 4.367183744907379150e-01
-2.897490262985229492e-01 -5.041310787200927734e-01 4.209689795970916748e-01
-3.039911985397338867e-01 -4.755964577198028564e-01 4.082096815109252930e-01
-3.161302506923675537e-01 -4.528619945049285889e-01 3.977164328098297119e-01
-3.263737261295318604e-01 -4.180167913436889648e-01 3.882834017276763916e-01
-3.339284956455230713e-01 -3.881582021713256836e-01 3.816920220851898193e-01
-3.413490951061248779e-01 -3.563223183155059814e-01 3.754045367240905762e-01
-3.416441977024078369e-01 -3.176077008247375488e-01 3.727364838123321533e-01
-3.001824617385864258e-01 -5.661343932151794434e-01 4.130889177322387695e-01
-3.160814046859741211e-01 -5.208833813667297363e-01 3.998161554336547852e-01
-3.272415101528167725e-01 -4.911487996578216553e-01 3.879151642322540283e-01
-3.370313048362731934e-01 -4.662325978279113770e-01 3.787619769573211670e-01
-3.466215431690216064e-01 -4.347326457500457764e-01 3.703069090843200684e-01
-3.535140156745910645e-01 -4.032804071903228760e-01 3.630195260047912598e-01
-3.579684793949127197e-01 -3.715430498123168945e-01 3.561128675937652588e-01
-3.622005581855773926e-01 -3.330580890178680420e-01 3.527836501598358154e-01
-3.200821876525878906e-01 -5.794312953948974609e-01 3.944952487945556641e-01
-3.329911530017852783e-01 -5.359178185462951660e-01 3.823800086975097656e-01
-3.432220816612243652e-01 -5.036721229553222656e-01 3.718601763248443604e-01
-3.535763919353485107e-01 -4.772275388240814209e-01 3.617087900638580322e-01
-3.613898754119873047e-01 -4.485923051834106445e-01 3.528458774089813232e-01
-3.656780421733856201e-01 -4.187667965888977051e-01 3.466629981994628906e-01
-3.704245984554290771e-01 -3.889191746711730957e-01 3.390336632728576660e-01
-3.763724863529205322e-01 -3.483645915985107422e-01 3.321704864501953125e-01
-3.365367054939270020e-01 -5.921981334686279297e-01 3.727844655513763428e-01
-3.497611582279205322e-01 -5.556921362876892090e-01 3.626304864883422852e-01
-3.603333830833435059e-01 -5.198678970336914062e-01 3.526188731193542480e-01
-3.682645559310913086e-01 -4.894346296787261963e-01 3.433877229690551758e-01
-3.724161684513092041e-01 -4.613347649574279785e-01 3.369365632534027100e-01
-3.758307397365570068e-01 -4.325262010097503662e-01 3.315387964248657227e-01
-3.801228404045104980e-01 -4.000064134597778320e-01 3.247728943824768066e-01
-3.872419297695159912e-01 -3.614020049571990967e-01 3.157383203506469727e-01
-3.522029817104339600e-01 -6.028671264648437500e-01 3.508801162242889404e-01
-3.659149408340454102e-01 -5.695480108261108398e-01 3.410335481166839600e-01
-3.745853006839752197e-01 -5.370187759399414062e-01 3.343761265277862549e-01
-3.784263432025909424e-01 -5.046885013580322266e-01 3.289043605327606201e-01
-3.813095092773437500e-01 -4.739689528942108154e-01 3.240267038345336914e-01
-3.843560218811035156e-01 -4.422630667686462402e-01 3.186980485916137695e-01
-3.885464668273925781e-01 -4.118171930313110352e-01 3.122330904006958008e-01
-3.960443735122680664e-01 -3.739711642265319824e-01 3.017759621143341064e-01
-3.693414330482482910e-01 -6.099010705947875977e-01 3.288169503211975098e-01
-3.791081309318542480e-01 -5.778794288635253906e-01 3.219603598117828369e-01
-3.847377896308898926e-01 -5.501369237899780273e-01 3.183058202266693115e-01
-3.886170387268066406e-01 -5.200624465942382812e-01 3.134799003601074219e-01
-3.912645280361175537e-01 -4.892048239707946777e-01 3.093745708465576172e-01
-3.943816125392913818e-01 -4.556209146976470947e-01 3.042125701904296875e-01
-3.978402912616729736e-01 -4.247197508811950684e-01 2.988034486770629883e-01
-4.052810370922088623e-01 -3.871285915374755859e-01 2.883176207542419434e-01
-3.850167393684387207e-01 -6.145755052566528320e-01 3.074021637439727783e-01
-3.914586305618286133e-01 -5.869833827018737793e-01 3.020312786102294922e-01
-3.953095674514770508e-01 -5.592583417892456055e-01 3.001126050949096680e-01
-3.991359174251556396e-01 -5.324859023094177246e-01 2.978014349937438965e-01
-4.024771749973297119e-01 -5.034002065658569336e-01 2.926955223083496094e-01
-4.058289825916290283e-01 -4.706298708915710449e-01 2.872685492038726807e-01
-4.090863466262817383e-01 -4.358153343200683594e-01 2.823387980461120605e-01
-4.133255779743194580e-01 -4.005561470985412598e-01 2.731560468673706055e-01
-4.035975933074951172e-01 -6.246134638786315918e-01 2.801935076713562012e-01
-4.063245654106140137e-01 -5.941331386566162109e-01 2.791929244995117188e-01
-4.097222685813903809e-01 -5.682170391082763672e-01 2.771470248699188232e-01
-4.132496416568756104e-01 -5.431712269783020020e-01 2.742438614368438721e-01
