3.718200325965881348e-01 5.924434661865234375e-01 3.230316936969757080e-01
2.892346084117889404e-01 3.827607035636901855e-01 -3.141655623912811279e-01
4.553850293159484863e-01 3.255680901929736137e-03 -4.026944562792778015e-02
1.133569926023483276e-01 5.408644080162048340e-01 -4.928320348262786865e-01
1.445566862821578979e-01 6.624587774276733398e-01 -3.937451243400573730e-01
9.457329660654067993e-02 -6.946903467178344727e-01 2.154934406280517578e-01
-4.332733154296875000e-01 -4.346539974212646484e-01 2.095923423767089844e-01
-5.320371314883232117e-02 3.355172872543334961e-01 -7.960631847381591797e-01
3.194130063056945801e-01 3.758639991283416748e-01 3.855338990688323975e-01
-4.322353750467300415e-02 5.282765030860900879e-01 -5.473110675811767578e-01
-3.143071532249450684e-01 -6.946903467178344727e-01 1.976202279329299927e-01
4.598606824874877930e-01 7.504767179489135742e-01 1.008147597312927246e-01
-8.416147530078887939e-02 -6.946903467178344727e-01 3.747273236513137817e-02
2.281349003314971924e-01 3.500258028507232666e-01 -3.591267466545104980e-01
3.857715725898742676e-01 7.846537232398986816e-01 -2.103221267461776733e-01
-1.368747800588607788e-01 -2.479355186223983765e-01 -3.967057764530181885e-01
2.613949775695800781e-01 -2.875833809375762939e-01 4.300560057163238525e-01
2.488578855991363525e-01 -6.496856808662414551e-01 4.396767616271972656e-01
-1.777960509061813354e-01 -6.946903467178344727e-01 -1.286911517381668091e-01
3.359763920307159424e-01 -2.335633933544158936e-01 3.697434961795806885e-01
6.988742947578430176e-02 -1.801209896802902222e-01 5.047448277473449707e-01
-4.067410826683044434e-01 -6.773287653923034668e-01 2.736514806747436523e-01
-4.495861232280731201e-01 -3.877487182617187500e-01 -7.568132877349853516e-02
1.911672800779342651e-01 -6.069051623344421387e-01 4.689643085002899170e-01
2.643151581287384033e-01 -4.409722387790679932e-01 4.278151392936706543e-01
-4.519124031066894531e-01 -6.946903467178344727e-01 1.028680577874183655e-01
-1.733563840389251709e-01 -5.433301329612731934e-01 -3.815949857234954834e-01
2.936497628688812256e-01 -6.306774616241455078e-01 -3.107773363590240479e-01
4.196126759052276611e-01 6.044278740882873535e-01 2.438328415155410767e-01
-9.305583313107490540e-03 2.251033931970596313e-01 -8.469849824905395508e-01
5.556789785623550415e-02 -3.151675164699554443e-01 -6.401728987693786621e-01
-3.868101239204406738e-01 -1.605762988328933716e-01 -2.082897871732711792e-01
4.424247443675994873e-01 -5.991395115852355957e-01 -9.423237293958663940e-02
6.591606885194778442e-02 -6.946903467178344727e-01 2.915547192096710205e-01
-4.655947089195251465e-01 -2.258610129356384277e-01 5.324615165591239929e-02
2.910611927509307861e-01 -1.245017051696777344e-01 4.072906374931335449e-01
4.219044148921966553e-01 -6.946903467178344727e-01 2.207621335983276367e-01
2.820025086402893066e-01 -1.642797589302062988e-01 -3.197155296802520752e-01
-4.442022144794464111e-01 -6.042572855949401855e-01 1.832057684659957886e-01
3.513974547386169434e-01 -6.392011046409606934e-01 3.496465682983398438e-01
3.571951091289520264e-01 -4.796602725982666016e-01 3.420910239219665527e-01
4.605506062507629395e-01 2.261644303798675537e-01 9.557646512985229492e-02
3.719638586044311523e-01 1.276578009128570557e-01 3.228442370891571045e-01
3.978990614414215088e-01 6.353005170822143555e-01 -1.945174783468246460e-01
9.625884145498275757e-02 -6.946903467178344727e-01 4.282908737659454346e-01
-4.481786191463470459e-01 -5.218590497970581055e-01 -7.907952368259429932e-02
-1.628458127379417419e-02 -3.558032512664794922e-01 5.117319822311401367e-01
-2.770543396472930908e-01 -2.849096655845642090e-01 -3.231068849563598633e-01
3.174174427986145020e-01 -3.955351710319519043e-01 3.870652616024017334e-01
5.509001761674880981e-02 9.312964230775833130e-02 -8.692491650581359863e-01
-3.429721295833587646e-01 -6.946903467178344727e-01 -3.036346286535263062e-03
4.113191366195678711e-01 -6.428487300872802734e-01 2.638556957244873047e-01
4.630911350250244141e-01 -5.071267485618591309e-01 7.628841698169708252e-02
4.290471374988555908e-01 -3.520707786083221436e-01 2.210554480552673340e-01
2.311429381370544434e-02 -3.640211224555969238e-01 -4.495989680290222168e-01
1.793300509452819824e-01 -1.847885996103286743e-01 4.738673567771911621e-01
3.692096769809722900e-01 -1.299822181463241577e-01 3.264335095882415771e-01
2.994584143161773682e-01 -6.946903467178344727e-01 -1.406596302986145020e-01
-3.863785266876220703e-01 -5.425137877464294434e-01 -2.088522017002105713e-01
-1.629529744386672974e-01 -6.946903467178344727e-01 3.433116674423217773e-01
-4.363133609294891357e-01 -3.123629391193389893e-01 2.022525072097778320e-01
3.781899213790893555e-01 -6.946903467178344727e-01 -4.413005709648132324e-02
-1.176893040537834167e-01 -5.161909461021423340e-01 -4.038556218147277832e-01
3.048428595066070557e-01 -2.245413959026336670e-01 -3.021877110004425049e-01
1.530026346445083618e-01 -6.946903467178344727e-01 5.499295890331268311e-02
4.646267294883728027e-01 8.128916621208190918e-01 2.989567071199417114e-02
-3.353884816169738770e-01 1.820491999387741089e-02 -2.753009796142578125e-01
-1.940736770629882812e-01 -4.057090282440185547e-01 -3.730137944221496582e-01
1.043420433998107910e-01 -3.605081140995025635e-01 -5.343972444534301758e-01
1.821279972791671753e-01 -3.020996451377868652e-01 4.727084040641784668e-01
2.785471379756927490e-01 5.030660033226013184e-01 -3.223672211170196533e-01
1.464295685291290283e-01 -2.869821786880493164e-01 -3.929693698883056641e-01
4.525934457778930664e-01 4.295227825641632080e-01 -6.146393716335296631e-02
5.550664663314819336e-02 -2.228831052780151367e-01 -4.121127426624298096e-01
-3.398417234420776367e-01 2.670966982841491699e-01 -2.694976627826690674e-01
-1.368834171444177628e-02 7.058403491973876953e-01 -4.175483286380767822e-01
-2.281288951635360718e-01 7.896462678909301758e-01 -3.589079976081848145e-01
-4.106080830097198486e-01 -5.058389902114868164e-01 2.643150389194488525e-01
-1.171845123171806335e-01 -7.697078585624694824e-02 -8.360936045646667480e-01
-3.834075033664703369e-01 -6.946903467178344727e-01 2.067715972661972046e-01
-7.592028379440307617e-02 -4.529115855693817139e-01 -4.093549251556396484e-01
1.638969779014587402e-01 5.686074495315551758e-02 -3.857343196868896484e-01
-4.243594408035278320e-01 -1.456206738948822021e-01 -1.365872025489807129e-01
4.634721577167510986e-01 6.796672940254211426e-01 7.339566946029663086e-02
-4.351195693016052246e-02 4.254603385925292969e-02 -8.642702102661132812e-01
-3.467947244644165039e-01 -6.946903467178344727e-01 -2.479600906372070312e-01
1.707861721515655518e-01 -6.946903467178344727e-01 -5.163660272955894470e-02
4.598997533321380615e-01 4.809124469757080078e-01 -5.992638878524303436e-03
-3.046703636646270752e-01 3.004508912563323975e-01 -3.019166588783264160e-01
-5.657481029629707336e-02 -1.972117274999618530e-01 -4.119019210338592529e-01
3.573057651519775391e-01 -3.461020588874816895e-01 -2.474191337823867798e-01
1.452392786741256714e-01 -5.013552904129028320e-01 -3.934624195098876953e-01
2.502489686012268066e-01 -6.946903467178344727e-01 -2.186902612447738647e-02
3.527875840663909912e-01 5.291962027549743652e-01 3.478349447250366211e-01
-7.939960807561874390e-02 -6.582822203636169434e-01 -4.088968634605407715e-01
2.789642214775085449e-01 7.185667753219604492e-01 -3.220471441745758057e-01
4.140722453594207764e-01 8.055858612060546875e-01 2.572088837623596191e-01
-1.325241476297378540e-01 -2.098175883293151855e-02 -3.985078334808349609e-01
-5.381924659013748169e-02 -6.946903467178344727e-01 1.682734042406082153e-01
-1.365506798028945923e-01 -6.946903467178344727e-01 4.480938911437988281e-01
-4.594921767711639404e-01 -5.980694293975830078e-01 -5.079140886664390564e-03
-1.063065081834793091e-01 4.901377558708190918e-01 -4.053542912006378174e-01
1.793650239706039429e-01 -4.269322156906127930e-01 4.738528728485107422e-01
4.119743108749389648e-01 -6.892129182815551758e-01 -1.677465140819549561e-01
4.056195318698883057e-01 -5.134559869766235352e-01 -1.830883920192718506e-01
-4.570271670818328857e-01 -3.867964446544647217e-01 1.183303594589233398e-01
-3.738141953945159912e-01 -1.075054034590721130e-01 -2.252256870269775391e-01
1.445475518703460693e-01 4.262014925479888916e-01 -3.937489390373229980e-01
2.880794703960418701e-01 -6.946903467178344727e-01 2.519688606262207031e-01
-2.495214492082595825e-01 -3.663209676742553711e-01 4.387591779232025146e-01
-1.544100344181060791e-01 8.608032464981079102e-01 -3.820769488811492920e-01
4.618689715862274170e-01 -6.370962262153625488e-01 8.958061225712299347e-03
5.012056604027748108e-02 -6.946903467178344727e-01 -1.931221038103103638e-01
-2.796513140201568604e-01 -3.969582021236419678e-01 -3.211142122745513916e-01
-4.545065462589263916e-01 -1.528407335281372070e-01 -4.295300692319869995e-02
-2.259853482246398926e-01 -6.946903467178344727e-01 1.196555793285369873e-01
4.091592729091644287e-01 6.925935149192810059e-01 2.690701484680175781e-01
4.454140067100524902e-01 4.316313266754150391e-01 1.815413683652877808e-01
2.202607244253158569e-01 6.081582307815551758e-01 -3.623882532119750977e-01
-3.069635629653930664e-01 -4.572208821773529053e-01 -3.001570403575897217e-01
-3.809621632099151611e-01 -4.558306336402893066e-01 3.104383945465087891e-01
-1.363525390625000000e-01 -6.946903467178344727e-01 1.094409599900245667e-01
-2.036698162555694580e-02 -6.946903467178344727e-01 -1.188339143991470337e-01
-1.477357000112533569e-01 -6.946903467178344727e-01 2.582567632198333740e-01
-1.425771564245223999e-01 -6.946903467178344727e-01 -4.145633894950151443e-03
2.995100319385528564e-01 -6.946903467178344727e-01 -2.285637259483337402e-01
-4.493277370929718018e-01 -5.426092743873596191e-01 1.708307117223739624e-01
-1.011425033211708069e-01 1.776867359876632690e-01 -4.060342013835906982e-01
-4.118400812149047852e-01 -6.946903467178344727e-01 -8.207506686449050903e-02
3.565502166748046875e-01 -4.170885682106018066e-02 -2.484037578105926514e-01
-4.085576832294464111e-01 -2.611751556396484375e-01 -1.747380495071411133e-01
-2.939085364341735840e-01 -1.140143498778343201e-01 -3.101744055747985840e-01
1.129008457064628601e-01 1.216413751244544983e-01 -8.654407262802124023e-01
1.896877288818359375e-01 -9.762793034315109253e-02 -3.750517368316650391e-01
-1.116899657063186169e-03 -2.843841314315795898e-01 -4.192035198211669922e-01
3.935464844107627869e-02 -2.258439362049102783e-01 5.087647438049316406e-01
-4.172587990760803223e-01 -4.417341053485870361e-01 -1.537305861711502075e-01
4.277314543724060059e-01 5.282227396965026855e-01 -1.297052800655364990e-01
-8.801213465631008148e-03 -1.349549293518066406e-01 -4.181917905807495117e-01
-1.850169748067855835e-01 -3.953742086887359619e-01 4.712905287742614746e-01
2.165222913026809692e-01 8.080541491508483887e-01 -3.639367520809173584e-01
-1.367941498756408691e-01 -2.891356647014617920e-01 4.912646710872650146e-01
4.594722092151641846e-01 -3.503751158714294434e-01 1.037643030285835266e-01
-2.531969547271728516e-01 4.708418846130371094e-01 -3.414130508899688721e-01
2.138770222663879395e-01 -3.700993955135345459e-01 -3.650324344635009766e-01
8.788943290710449219e-02 7.395440340042114258e-01 -4.078493118286132812e-01
4.322854876518249512e-01 -2.697494626045227051e-01 -1.187108457088470459e-01
-3.685867786407470703e-02 -2.768180519342422485e-02 -8.550281524658203125e-01
-4.399036467075347900e-01 -6.019927561283111572e-02 -9.905820339918136597e-02
4.389041066169738770e-01 1.941944807767868042e-01 -1.027319803833961487e-01
4.438750147819519043e-01 3.191840350627899170e-01 -9.073109924793243408e-02
-4.133675247430801392e-02 -6.946903467178344727e-01 -2.817284762859344482e-01
8.551232516765594482e-02 1.937649548053741455e-01 -4.081622660160064697e-01
4.061856865882873535e-01 4.788049757480621338e-01 2.762492299079895020e-01
3.770574033260345459e-01 3.672232627868652344e-01 -2.216785550117492676e-01
-1.154242008924484253e-01 -3.767341971397399902e-01 4.986793398857116699e-01
-2.035817652940750122e-01 1.563878804445266724e-01 -3.690755367279052734e-01
-4.494954347610473633e-01 -2.502011656761169434e-01 1.704257428646087646e-01
-3.468040823936462402e-01 -5.251471996307373047e-01 3.549522161483764648e-01
9.982642531394958496e-02 -6.946903467178344727e-01 1.543308645486831665e-01
2.968710362911224365e-01 2.772296667098999023e-01 -3.083053231239318848e-01
-2.166366875171661377e-01 -6.946903467178344727e-01 3.554946184158325195e-01
3.593264222145080566e-01 2.274456620216369629e-01 -2.447857707738876343e-01
4.243385195732116699e-01 -4.649669229984283447e-01 2.324233502149581909e-01
4.368660449981689453e-01 -6.946903467178344727e-01 -7.815436460077762604e-03
5.397400818765163422e-04 -4.888375103473663330e-01 -4.193495213985443115e-01
-3.001938164234161377e-01 3.700624704360961914e-01 -3.053516149520874023e-01
-5.393661931157112122e-02 5.025487542152404785e-01 -6.096002459526062012e-01
-4.994757100939750671e-02 8.580942749977111816e-01 -4.127744734287261963e-01
-2.939595580101013184e-01 3.281591460108757019e-02 -3.101352751255035400e-01
-4.178573489189147949e-01 2.864620089530944824e-02 -1.522854715585708618e-01
-3.021423816680908203e-01 -5.677663683891296387e-01 3.983834981918334961e-01
7.810940593481063843e-02 5.944245457649230957e-01 -4.091368913650512695e-01
3.993773460388183594e-01 4.936547875404357910e-01 -1.925909370183944702e-01
3.667021691799163818e-01 1.406145542860031128e-01 -2.351735830307006836e-01
-2.498733848333358765e-01 2.287365794181823730e-01 -3.439633250236511230e-01
4.634434580802917480e-01 -6.245740652084350586e-01 7.361364364624023438e-02
5.703834444284439087e-02 8.679786697030067444e-03 -8.599032163619995117e-01
5.561054497957229614e-02 -4.648482799530029297e-01 -4.120990633964538574e-01
-6.871069967746734619e-02 -1.967196464538574219e-01 -7.687483429908752441e-01
3.975812196731567383e-01 1.480568945407867432e-02 -1.949316859245300293e-01
2.842118740081787109e-01 6.643566489219665527e-01 -3.180200755596160889e-01
1.777061223983764648e-01 -5.052926950156688690e-03 4.745399951934814453e-01
-1.718707978725433350e-01 -6.946903467178344727e-01 -3.515839874744415283e-01
1.601124405860900879e-01 5.337408781051635742e-01 -3.873018920421600342e-01
-9.889731556177139282e-02 6.270747780799865723e-01 -4.063297808170318604e-01
-6.726806610822677612e-02 4.446371793746948242e-01 -6.977108120918273926e-01
-6.271091848611831665e-02 -6.946903467178344727e-01 -2.240380197763442993e-01
4.382883608341217041e-01 7.357385754585266113e-01 1.987446099519729614e-01
-1.954456567764282227e-01 -6.148641705513000488e-01 4.669709503650665283e-01
-3.419791758060455322e-01 -5.827347040176391602e-01 -2.667121887207031250e-01
2.253379374742507935e-01 -6.946903467178344727e-01 -2.946586310863494873e-01
-4.633153975009918213e-01 -1.091773733496665955e-01 2.396436780691146851e-02
-1.180953681468963623e-01 -1.868503242731094360e-01 -4.038021862506866455e-01
9.491908363997936249e-03 5.294949412345886230e-01 -5.434790253639221191e-01
-4.286392629146575928e-01 -3.667542636394500732e-01 2.207807898521423340e-01
1.376815736293792725e-01 -8.304415643215179443e-02 4.911183118820190430e-01
4.267856180667877197e-01 3.755872249603271484e-01 2.265153974294662476e-01
3.440343439579010010e-01 -6.946903467178344727e-01 2.769405543804168701e-01
4.123027920722961426e-01 1.466131955385208130e-01 -1.669535487890243530e-01
8.823675662279129028e-02 -1.063782796263694763e-01 -4.078035950660705566e-01
-8.483054488897323608e-02 1.083119958639144897e-01 -4.081818163394927979e-01
-2.851453423500061035e-01 1.299580931663513184e-01 -3.168985247611999512e-01
2.524857223033905029e-01 4.339749813079833984e-01 -3.423669338226318359e-01
-2.806454896926879883e-01 -6.946903467178344727e-01 -8.596139401197433472e-02
3.772225975990295410e-01 -4.246238768100738525e-01 3.159909844398498535e-01
3.311067521572113037e-01 -3.458875715732574463e-01 3.760896921157836914e-01
4.562768936157226562e-01 -6.178199052810668945e-01 1.280236542224884033e-01
4.618925452232360840e-01 -2.955564558506011963e-01 8.538839966058731079e-02
2.459407597780227661e-01 9.274904429912567139e-02 4.419153332710266113e-01
4.363278448581695557e-01 6.426152586936950684e-01 -1.089516431093215942e-01
4.534591138362884521e-01 8.473741412162780762e-01 -5.489150062203407288e-02
4.084946215152740479e-01 7.330478429794311523e-01 -1.761473715305328369e-01
3.987048864364624023e-01 2.415760755538940430e-01 -1.934673190116882324e-01
-3.606823682785034180e-01 9.762198477983474731e-02 -2.423387169837951660e-01
-1.723439246416091919e-02 6.540780067443847656e-01 -4.170814752578735352e-01
-3.882642984390258789e-01 -3.103227913379669189e-01 3.009224236011505127e-01
4.591267704963684082e-01 6.698629856109619141e-01 -1.186143234372138977e-02
4.602849185466766357e-01 7.731650471687316895e-01 -3.068595193326473236e-03
2.551107406616210938e-01 -6.946903467178344727e-01 -1.139026209712028503e-01
-2.530630826950073242e-01 -1.036853902041912079e-02 -3.415157794952392578e-01
-2.137175202369689941e-01 3.018568754196166992e-01 -3.648772537708282471e-01
8.492860198020935059e-02 7.327484339475631714e-02 -4.082391262054443359e-01
4.527671337127685547e-01 -2.054007947444915771e-01 -6.014513224363327026e-02
1.352591365575790405e-01 -6.946903467178344727e-01 -1.307447161525487900e-02
3.285630643367767334e-01 -3.236825764179229736e-01 -2.839846312999725342e-01
-4.538111090660095215e-01 -4.646702408790588379e-01 -4.823591187596321106e-02
-2.575321197509765625e-01 -6.946903467178344727e-01 1.602962613105773926e-02
5.864614993333816528e-02 -2.806473076343536377e-01 -6.851852536201477051e-01
2.990719676017761230e-01 7.626718375831842422e-03 4.011432826519012451e-01
4.045434594154357910e-01 4.142432212829589844e-01 2.802139818668365479e-01
-3.605881631374359131e-01 -6.946903467178344727e-01 8.430474251508712769e-02
3.614509701728820801e-01 -5.311084389686584473e-01 3.365447223186492920e-01
1.784394532442092896e-01 1.708452999591827393e-01 -3.797107636928558350e-01
4.337208271026611328e-01 4.183630347251892090e-01 -1.152455955743789673e-01
-1.164399757981300354e-01 -6.946903467178344727e-01 -8.098912239074707031e-02
3.097572922706604004e-01 -5.559372305870056152e-01 3.929435312747955322e-01
-3.341557979583740234e-01 2.167481034994125366e-01 -2.769074141979217529e-01
4.618850536644458771e-03 -6.946903467178344727e-01 4.713940918445587158e-01
-1.226266920566558838e-01 -4.142951369285583496e-01 -4.026073813438415527e-01
4.899044707417488098e-02 5.437357425689697266e-01 -4.744414687156677246e-01
2.241495549678802490e-01 -1.658307947218418121e-02 -3.607774972915649414e-01
-2.226391285657882690e-01 -6.078899502754211426e-01 -3.611818850040435791e-01
-3.004251420497894287e-01 -6.465612053871154785e-01 -3.051740825176239014e-01
4.597720801830291748e-01 -6.925743222236633301e-01 1.014873832464218140e-01
-2.987680733203887939e-01 -3.279773294925689697e-01 -3.064455687999725342e-01
-4.526523947715759277e-01 -2.484520375728607178e-01 -5.703813210129737854e-02
-1.618936210870742798e-01 2.682021558284759521e-01 -3.863428831100463867e-01
-4.306830093264579773e-02 -6.946903467178344727e-01 3.133668899536132812e-01
1.371029317378997803e-01 -2.618402540683746338e-01 4.913579523563385010e-01
1.266986131668090820e-01 -6.333967447280883789e-01 -4.011420309543609619e-01
-3.710547685623168945e-01 -6.484666466712951660e-01 -2.288217097520828247e-01
1.868785172700881958e-01 2.580298781394958496e-01 -3.762152791023254395e-01
4.624053537845611572e-01 -3.545717597007751465e-01 1.303054392337799072e-02
4.421910047531127930e-01 1.804237514734268188e-01 1.893225610256195068e-01
1.046655606478452682e-02 4.363961815834045410e-01 -4.180425405502319336e-01
3.994631469249725342e-01 -5.625068545341491699e-01 2.870068252086639404e-01
4.302202463150024414e-01 -1.126720085740089417e-01 -1.236967667937278748e-01
5.564178898930549622e-02 -3.681596815586090088e-01 -5.020792484283447266e-01
-2.708850987255573273e-02 6.042114272713661194e-02 -4.157840907573699951e-01
4.572692513465881348e-02 6.798813343048095703e-01 -4.134003221988677979e-01
2.445159852504730225e-01 -1.965105384588241577e-01 4.430086910724639893e-01
2.266156673431396484e-01 1.650328189134597778e-01 -3.597560226917266846e-01
-6.157462671399116516e-02 -6.946903467178344727e-01 -8.228686451911926270e-02
3.759265542030334473e-01 -1.612000316381454468e-01 -2.231522798538208008e-01
3.726750016212463379e-01 5.375770926475524902e-01 -2.273897379636764526e-01
2.977462112903594971e-01 5.484069585800170898e-01 -3.076336979866027832e-01
3.631588816642761230e-01 2.989371418952941895e-01 -2.397912442684173584e-01
4.571852087974548340e-01 -5.324614644050598145e-01 1.211273446679115295e-01
9.877192974090576172e-02 -2.774595916271209717e-01 -4.064165651798248291e-01
4.236844182014465332e-02 -4.888060502707958221e-03 -4.138424396514892578e-01
-2.271965444087982178e-01 -6.946903467178344727e-01 -2.440392524003982544e-01
1.088232845067977905e-01 -1.732110828161239624e-01 -4.050931930541992188e-01
-3.627629876136779785e-01 -3.945733606815338135e-01 -2.396273314952850342e-01
4.522212445735931396e-01 1.104675456881523132e-01 1.588150411844253540e-01
3.430193960666656494e-01 7.429479956626892090e-01 -2.660372853279113770e-01
-2.641647160053253174e-01 -2.371209561824798584e-01 -3.329973220825195312e-01
-4.250010550022125244e-01 -2.347074896097183228e-01 -1.350381225347518921e-01
-5.721857398748397827e-02 -2.773313522338867188e-01 -6.884529590606689453e-01
7.199183106422424316e-02 4.088373780250549316e-01 -7.391313314437866211e-01
3.958382904529571533e-01 -3.126220703125000000e-01 -1.972030699253082275e-01
-1.781786829233169556e-01 -6.946903467178344727e-01 -2.888159453868865967e-01
4.664249420166015625e-01 8.792446926236152649e-03 4.354805871844291687e-02
-8.167038857936859131e-02 -5.530127882957458496e-01 -4.085978567600250244e-01
-5.166863650083541870e-02 -2.758336961269378662e-01 5.070733428001403809e-01
4.554276466369628906e-01 3.728007376194000244e-01 -3.994576632976531982e-02
3.276900351047515869e-01 -1.040922701358795166e-01 3.791822493076324463e-01
4.555876851081848145e-01 -4.645911604166030884e-02 -3.873092308640480042e-02
-1.477336138486862183e-01 5.230617523193359375e-01 -3.922080099582672119e-01
-1.137183010578155518e-01 -6.946903467178344727e-01 -3.363273739814758301e-01
2.485614567995071411e-01 -6.946903467178344727e-01 2.219341844320297241e-01
3.620208501815795898e-01 4.090309739112854004e-01 3.358020782470703125e-01
-3.071389198303222656e-01 -5.287541747093200684e-01 -3.000225126743316650e-01
1.600265651941299438e-01 7.449374068528413773e-03 -3.873374462127685547e-01
-2.062000799924135208e-03 -6.443324089050292969e-01 -4.190790951251983643e-01
4.674664232879877090e-03 -4.006434082984924316e-01 5.133305191993713379e-01
7.852399349212646484e-02 3.097652792930603027e-01 -4.090823233127593994e-01
2.588600814342498779e-01 -8.883702754974365234e-02 -3.374752104282379150e-01
-4.113363623619079590e-01 -6.946903467178344727e-01 -1.512910276651382446e-01
-4.258454218506813049e-02 -5.602042675018310547e-01 5.082693099975585938e-01
-4.848604649305343628e-02 -3.757191300392150879e-01 -4.559840261936187744e-01
2.204679325222969055e-02 -3.318134248256683350e-01 -6.022816896438598633e-01
-1.430920809507369995e-01 5.904732942581176758e-01 -3.941305577754974365e-01
5.763355270028114319e-02 -4.809873104095458984e-01 5.063581466674804688e-01
9.399613738059997559e-02 -6.568281650543212891e-01 5.015707612037658691e-01
3.797317743301391602e-01 -3.358446359634399414e-01 3.127210140228271484e-01
3.808183073997497559e-01 -2.309152632951736450e-01 -2.167772948741912842e-01
4.380742311477661133e-01 -1.365059465169906616e-01 1.992616057395935059e-01
4.459426999092102051e-01 -3.278631567955017090e-01 1.802649646997451782e-01
4.018120765686035156e-01 6.840631961822509766e-01 -1.894179284572601318e-01
1.811455041170120239e-01 6.331726908683776855e-01 -3.785898983478546143e-01
-1.306081712245941162e-01 -5.356782078742980957e-01 4.938268959522247314e-01
4.140516221523284912e-01 3.446877896785736084e-01 -1.627314537763595581e-01
1.063329949975013733e-01 -2.420949339866638184e-01 -7.348679304122924805e-01
4.512588083744049072e-01 6.616751551628112793e-01 1.661222130060195923e-01
2.672716379165649414e-01 -6.667826771736145020e-01 -3.310201466083526611e-01
1.009568646550178528e-01 -5.748411417007446289e-01 5.006543397903442383e-01
4.323011934757232666e-01 4.866197705268859863e-01 2.131992727518081665e-01
-4.338419530540704727e-03 -1.456788033246994019e-01 -8.079607486724853516e-01
-3.760383129119873047e-01 -6.666427254676818848e-01 3.168550133705139160e-01
-3.638177812099456787e-01 3.863656520843505859e-02 -2.382527589797973633e-01
1.915766298770904541e-01 4.962366819381713867e-02 4.687947928905487061e-01
-4.646258056163787842e-01 -4.155346453189849854e-01 3.391888737678527832e-02
-1.914625056087970734e-02 1.444506198167800903e-01 -8.625576496124267578e-01
-1.175041198730468750e-01 4.202805757522583008e-01 -4.038800001144409180e-01
3.143541812896728516e-01 7.947410345077514648e-01 -2.948886454105377197e-01
3.272693157196044922e-01 -6.550090312957763672e-01 -2.849774658679962158e-01
3.305935561656951904e-01 -6.946903467178344727e-01 -3.309531882405281067e-02
5.490619805641472340e-04 3.390748500823974609e-01 -7.930454015731811523e-01
-3.304753601551055908e-01 -3.688628077507019043e-01 3.762313127517700195e-01
-4.266363084316253662e-01 -4.995991587638854980e-01 -1.310900151729583740e-01
3.032499924302101135e-03 2.492105066776275635e-01 -4.190213084220886230e-01
1.953324079513549805e-01 8.608032464981079102e-01 -3.521912992000579834e-01
5.156422406435012817e-02 -5.459021329879760742e-01 5.071572065353393555e-01
9.240069240331649780e-02 -3.259890079498291016e-01 -4.072553813457489014e-01
2.327424287796020508e-02 -6.946903467178344727e-01 -2.475919425487518311e-01
-5.931592360138893127e-02 -1.318592461757361889e-03 -4.115410447120666504e-01
-1.075283885002136230e-01 4.731519818305969238e-01 -6.609197258949279785e-01
1.217467989772558212e-02 -6.946903467178344727e-01 2.864331901073455811e-01
6.243114918470382690e-02 -6.946903467178344727e-01 -6.289682537317276001e-02
3.196880519390106201e-01 -2.765094935894012451e-01 -2.907953560352325439e-01
4.388635754585266113e-01 3.318554759025573730e-01 1.973558664321899414e-01
4.342567324638366699e-01 -5.321725606918334961e-01 2.084780931472778320e-01
-1.906006485223770142e-01 6.004207134246826172e-01 -3.744523227214813232e-01
4.519799053668975830e-01 -4.509082138538360596e-01 1.606473773717880249e-01
-3.979871571063995361e-01 -1.298624183982610703e-02 -1.937241852283477783e-01
1.063974350690841675e-01 2.274782061576843262e-01 -8.456672430038452148e-01
4.668318331241607666e-01 -2.617766559123992920e-01 4.663724079728126526e-02
2.064777314662933350e-01 -4.411665797233581543e-01 -3.680972158908843994e-01
1.277183368802070618e-02 -6.946903467178344727e-01 -3.635538816452026367e-01
4.587019383907318115e-01 -4.345973432064056396e-01 -1.508673466742038727e-02
-5.109288915991783142e-02 -6.946903467178344727e-01 7.248833030462265015e-02
4.541530013084411621e-01 5.958478450775146484e-01 -4.962337017059326172e-02
-1.947541981935501099e-01 3.820096328854560852e-02 -3.727318942546844482e-01
2.227545380592346191e-01 -6.946903467178344727e-01 1.809607744216918945e-01
4.802623298019170761e-03 -1.667063236236572266e-01 5.133136510848999023e-01
3.421659767627716064e-01 3.085034787654876709e-01 3.616771697998046875e-01
3.527435064315795898e-01 -6.855328083038330078e-01 -2.533647119998931885e-01
4.456476569175720215e-01 -7.971397787332534790e-02 -8.645153045654296875e-02
3.115052282810211182e-01 3.276663422584533691e-01 -2.970749437808990479e-01
2.588934302330017090e-01 2.045139111578464508e-02 -3.374496102333068848e-01
3.585034981369972229e-02 -7.822897285223007202e-02 -4.147006273269653320e-01
1.178253889083862305e-01 -2.060228399932384491e-02 -4.039080142974853516e-01
3.617274761199951172e-01 5.700686946511268616e-02 3.361843824386596680e-01
3.200561702251434326e-01 -6.946903467178344727e-01 1.567437201738357544e-01
-1.452390998601913452e-01 -1.451131552457809448e-01 -3.932412266731262207e-01
-4.582803845405578613e-01 -2.086948603391647339e-01 -1.428458653390407562e-02
-9.337274730205535889e-02 -1.981940269470214844e-01 5.015826225280761719e-01
1.632364690303802490e-01 -6.458764076232910156e-01 4.805333912372589111e-01
2.580785453319549561e-01 -6.946903467178344727e-01 4.114414453506469727e-01
-4.508997201919555664e-01 -6.476534605026245117e-01 1.648779064416885376e-01
4.667145609855651855e-01 4.439109265804290771e-01 4.574703425168991089e-02
-3.853956758975982666e-01 2.022710144519805908e-01 -2.101330459117889404e-01
4.074585139751434326e-01 -6.946903467178344727e-01 -8.154648542404174805e-02
4.279268085956573486e-01 -3.993856608867645264e-01 2.237602919340133667e-01
3.037661612033843994e-01 6.213245987892150879e-01 -3.030139505863189697e-01
-4.585064947605133057e-01 -5.865938663482666016e-01 1.070922687649726868e-01
2.089960724115371704e-01 -5.660369396209716797e-01 -3.670541346073150635e-01
7.955688983201980591e-02 -2.883486822247505188e-02 5.034717917442321777e-01
6.006923317909240723e-02 -1.750950664281845093e-01 -7.860314249992370605e-01
2.435274273157119751e-01 -4.017739892005920410e-01 4.437672495841979980e-01
7.325779646635055542e-02 -6.946903467178344727e-01 4.693613648414611816e-01
-1.202156543731689453e-01 6.819608211517333984e-01 -4.035229980945587158e-01
1.400658786296844482e-01 -6.946903467178344727e-01 -2.444270700216293335e-01
1.176328584551811218e-01 4.979356825351715088e-01 -6.178460717201232910e-01
1.872050166130065918e-01 -1.169158518314361572e-01 4.706054925918579102e-01
1.423358470201492310e-01 9.763343632221221924e-02 -3.946650326251983643e-01
9.974680840969085693e-03 5.460917204618453979e-02 -8.659088015556335449e-01
-6.971041113138198853e-02 -6.946903467178344727e-01 2.592708170413970947e-01
-1.838985979557037354e-01 -4.422715008258819580e-01 4.717538356781005859e-01
3.155696988105773926e-01 1.265797615051269531e-01 -2.939558327198028564e-01
3.647674024105072021e-01 1.729885190725326538e-01 3.322227299213409424e-01
-2.065399438142776489e-01 2.031220495700836182e-01 -3.678502142429351807e-01
-2.555484510958194733e-02 -7.165858894586563110e-02 -8.385592103004455566e-01
4.547611810266971588e-03 4.575392007827758789e-01 -6.802451610565185547e-01
1.586198508739471436e-01 -6.946903467178344727e-01 -1.431257277727127075e-01
2.431546598672866821e-01 -2.431780397891998291e-01 4.440533220767974854e-01
-3.263759911060333252e-01 -3.590955436229705811e-01 -2.852615714073181152e-01
-3.223230689764022827e-02 -4.189673662185668945e-01 -4.151068627834320068e-01
4.550722241401672363e-01 7.292392849922180176e-01 -4.264440387487411499e-02
7.721090316772460938e-02 5.128245949745178223e-01 -4.092552363872528076e-01
4.345157369971275330e-02 8.139643073081970215e-01 -4.136998653411865234e-01
4.015560150146484375e-01 5.902853012084960938e-01 2.842794060707092285e-01
1.492248177528381348e-01 -6.946903467178344727e-01 3.565687835216522217e-01
1.020557507872581482e-01 6.913705468177795410e-01 -4.059842228889465332e-01
4.668089747428894043e-01 -5.858987569808959961e-01 4.806155711412429810e-02
4.589155912399291992e-01 -5.170566439628601074e-01 -1.346477586776018143e-02
4.143464267253875732e-01 1.593664586544036865e-01 2.565469145774841309e-01
1.471719741821289062e-01 -2.153884619474411011e-01 4.871873557567596436e-01
-3.607478141784667969e-01 -6.241371631622314453e-01 3.367811143398284912e-01
-8.250006288290023804e-02 1.238752231001853943e-01 -8.653258681297302246e-01
3.516266345977783203e-01 -1.908051520586013794e-01 3.493479788303375244e-01
-2.064459621906280518e-01 -1.033195331692695618e-01 -3.678891360759735107e-01
3.658213615417480469e-01 8.281123042106628418e-01 -2.363214790821075439e-01
-1.256643086671829224e-01 -8.839878439903259277e-02 -4.013491868972778320e-01
-8.530303090810775757e-02 8.169129490852355957e-01 -4.081196188926696777e-01
1.801639348268508911e-01 7.188295125961303711e-01 -3.789964914321899414e-01
-3.990665674209594727e-01 -6.462294459342956543e-01 -1.923174858093261719e-01
-9.165649861097335815e-02 2.162776142358779907e-01 -8.508784770965576172e-01
2.825706601142883301e-01 -1.793448030948638916e-01 4.138061404228210449e-01
4.438728690147399902e-01 8.608032464981079102e-01 4.208165407180786133e-02
6.024963781237602234e-02 3.359494209289550781e-01 -7.951238751411437988e-01
-7.421771064400672913e-03 1.657784879207611084e-01 -4.183734059333801270e-01
4.119549989700317383e-01 2.348987162113189697e-01 2.623204886913299561e-01
7.601796835660934448e-02 4.472813606262207031e-01 -6.929630637168884277e-01
3.342766165733337402e-01 -5.855079293251037598e-01 -2.774309813976287842e-01
1.284524202346801758e-01 -6.946903467178344727e-01 -1.822725832462310791e-01
-1.672982275485992432e-01 1.794566363096237183e-01 -3.841042518615722656e-01
4.579673707485198975e-01 3.059822022914886475e-01 1.151892915368080139e-01
-1.997904330492019653e-01 -3.389689028263092041e-01 4.651713371276855469e-01
4.645329117774963379e-01 -4.630565941333770752e-01 6.534206867218017578e-02
4.021446108818054199e-01 -1.988188773393630981e-01 2.835123538970947266e-01
-1.117925718426704407e-01 -2.078845053911209106e-01 -7.599503993988037109e-01
4.604699313640594482e-01 5.854489207267761230e-01 9.618904441595077515e-02
-4.122976586222648621e-02 -3.143262267112731934e-01 -4.139222800731658936e-01
3.857637643814086914e-01 -6.529264450073242188e-01 -2.103323340415954590e-01
-3.404133617877960205e-01 1.432727128267288208e-01 -2.687526941299438477e-01
2.104043662548065186e-01 -6.946903467178344727e-01 -2.192858308553695679e-01
-4.517999887466430664e-01 -5.675945281982421875e-01 -6.351360678672790527e-02
2.407243549823760986e-01 -6.946903467178344727e-01 1.279022097587585449e-01
-8.555846661329269409e-02 -4.719710722565650940e-02 -8.485175967216491699e-01
4.566070437431335449e-01 -2.245406508445739746e-01 1.255171746015548706e-01
1.356316953897476196e-01 3.421747684478759766e-01 -3.974418938159942627e-01
-8.743599057197570801e-02 5.160021781921386719e-01 -5.776887536048889160e-01
3.461411595344543457e-01 -4.700328111648559570e-01 -2.619689702987670898e-01
-1.848535835742950439e-01 -6.946903467178344727e-01 1.149815879762172699e-02
2.985944747924804688e-01 -6.946903467178344727e-01 1.992968767881393433e-01
-2.015727199614048004e-02 3.256039619445800781e-01 -4.166966676712036133e-01
-1.513876318931579590e-01 -6.946903467178344727e-01 -1.755549609661102295e-01
4.656937718391418457e-01 -1.863621175289154053e-01 5.652850493788719177e-02
1.411840319633483887e-01 -4.092456400394439697e-01 4.896675348281860352e-01
8.597321808338165283e-02 -1.382000744342803955e-01 5.026270151138305664e-01
-2.495113313198089600e-01 1.297330409288406372e-01 -3.442410826683044434e-01
-4.540120959281921387e-01 -3.071149289608001709e-01 -4.670906811952590942e-02
4.235759079456329346e-01 -5.276341922581195831e-03 -1.397377550601959229e-01
4.348295927047729492e-01 -4.244595468044281006e-01 -1.125687584280967712e-01
4.649098217487335205e-01 -7.259666919708251953e-02 3.204468265175819397e-02
1.586794666945934296e-02 -3.169968724250793457e-01 5.118569135665893555e-01
2.996012866497039795e-01 -1.031292453408241272e-01 -3.062101304531097412e-01
3.466500639915466309e-01 5.508514046669006348e-01 -2.613057494163513184e-01
3.332737386226654053e-01 2.136319130659103394e-01 -2.787379324436187744e-01
-3.311902284622192383e-01 -4.809348881244659424e-01 3.752997219562530518e-01
4.591966867446899414e-01 -3.982978761196136475e-01 1.058559194207191467e-01
4.524466991424560547e-01 -1.399049460887908936e-01 1.571035385131835938e-01
1.194859147071838379e-01 -1.757241636514663696e-01 4.982149004936218262e-01
7.420145720243453979e-02 -3.381547927856445312e-01 -5.878525972366333008e-01
3.397481739521026611e-01 -6.946903467178344727e-01 -8.357931673526763916e-02
7.216384261846542358e-02 -6.946903467178344727e-01 -1.063460409641265869e-01
4.669533111155033112e-03 5.996723175048828125e-01 -4.188057780265808105e-01
4.260406792163848877e-01 2.015460133552551270e-01 2.283138632774353027e-01
3.405898809432983398e-01 -2.363515794277191162e-01 -2.692034244537353516e-01
-2.789253294467926025e-01 2.025368362665176392e-01 -3.216712474822998047e-01
-4.621065557003021240e-01 -3.286239504814147949e-01 1.478122640401124954e-02
4.410808980464935303e-01 4.937684535980224609e-02 -9.747672080993652344e-02
4.554423987865447998e-01 -6.252011656761169434e-01 -3.983371704816818237e-02
3.330204486846923828e-01 -4.039371907711029053e-01 -2.790680229663848877e-01
1.479908227920532227e-01 -5.706567168235778809e-01 4.868481755256652832e-01
-4.220499249640852213e-04 5.046484470367431641e-01 -4.192949831485748291e-01
3.356889784336090088e-01 8.608032464981079102e-01 -2.361817061901092529e-01
-4.656949937343597412e-01 -6.813960671424865723e-01 5.248432606458663940e-02
-1.248106211423873901e-01 -2.899975180625915527e-01 -4.017027914524078369e-01
-2.142382711172103882e-01 -1.907120347023010254e-01 -3.646615743637084961e-01
2.837320864200592041e-01 8.261711001396179199e-01 -3.183882534503936768e-01
4.204442724585533142e-02 -5.342617630958557129e-01 -4.138851165771484375e-01
-8.158116042613983154e-02 2.626918256282806396e-01 -4.086096286773681641e-01
4.572571516036987305e-01 4.619345441460609436e-02 -2.605578303337097168e-02
-5.443390086293220520e-02 3.801319897174835205e-01 -7.618346810340881348e-01
-1.121886670589447021e-01 3.412838876247406006e-01 -4.045798778533935547e-01
8.625330030918121338e-02 -6.946903467178344727e-01 -4.060142040252685547e-01
4.085806906223297119e-01 4.327408075332641602e-01 -1.759395301342010498e-01
2.122001051902770996e-01 -6.946903467178344727e-01 -1.537850946187973022e-01
-1.913238316774368286e-01 6.947277784347534180e-01 -3.741527795791625977e-01
2.247692197561264038e-01 -3.397072553634643555e-01 4.550462961196899414e-01
-4.230343103408813477e-01 -4.692491888999938965e-01 2.343132793903350830e-01
3.299384117126464844e-01 -4.944017231464385986e-01 3.774569034576416016e-01
-2.408383414149284363e-02 1.095347851514816284e-01 -4.161796867847442627e-01
-1.361340880393981934e-01 -6.906805634498596191e-01 4.915380179882049561e-01
4.646897017955780029e-01 3.196749091148376465e-01 3.037359379231929779e-02
3.788819313049316406e-01 -6.946903467178344727e-01 6.981682032346725464e-02
-2.752373181283473969e-02 5.466668009757995605e-01 -4.562400877475738525e-01
2.439149022102355957e-01 1.148214489221572876e-01 -3.489442467689514160e-01
-4.417604804039001465e-01 -1.552313119173049927e-01 -9.457513689994812012e-02
4.558605551719665527e-01 8.171638846397399902e-01 1.311846524477005005e-01
2.479581534862518311e-01 2.001676410436630249e-01 -3.458414077758789062e-01
-1.887796372175216675e-01 -3.084059953689575195e-01 -3.752066195011138916e-01
4.262975230813026428e-02 -6.946903467178344727e-01 2.273682504892349243e-01
4.623903632164001465e-01 -1.997068151831626892e-02 8.160874247550964355e-02
3.914647996425628662e-01 -3.059343807399272919e-02 2.974303662776947021e-01
-4.127086102962493896e-01 -5.463332533836364746e-01 -1.647162586450576782e-01
-3.814918398857116699e-01 -6.946903467178344727e-01 -5.126845091581344604e-02
-1.326005756855010986e-01 -6.946903467178344727e-01 -1.233041435480117798e-01
6.203053053468465805e-03 -5.900385379791259766e-01 -4.186038970947265625e-01
-4.297679960727691650e-01 -1.881497055292129517e-01 -1.235290542244911194e-01
-3.150315880775451660e-01 -6.946903467178344727e-01 3.770055770874023438e-01
2.910120487213134766e-01 1.846715211868286133e-01 4.073283672332763672e-01
4.605416655540466309e-01 -2.858017086982727051e-01 -1.119028776884078979e-03
3.289761841297149658e-01 -6.946903467178344727e-01 5.800094828009605408e-02
4.636102020740509033e-01 6.827680766582489014e-02 7.234779000282287598e-02
7.053047418594360352e-02 2.573679089546203613e-01 -4.101347327232360840e-01
3.470876216888427734e-01 6.695319414138793945e-01 -2.607355117797851562e-01
3.249680995941162109e-01 4.286168217658996582e-01 -2.867434620857238770e-01
4.425084888935089111e-01 -2.255695611238479614e-01 1.885561048984527588e-01
3.914154767990112305e-01 -5.487812161445617676e-01 -2.029669433832168579e-01
7.789278030395507812e-02 -6.946903467178344727e-01 6.765533238649368286e-02
3.019039332866668701e-01 9.564875811338424683e-02 3.989700675010681152e-01
2.500991821289062500e-01 -5.396681427955627441e-01 4.387242197990417480e-01
-3.751990944147109985e-02 -6.946903467178344727e-01 -3.789361119270324707e-01
1.876177964732050896e-03 -6.946903467178344727e-01 -2.875004410743713379e-01
2.726703584194183350e-01 -6.946903467178344727e-01 3.673122227191925049e-01
4.437475502490997314e-01 -5.212733745574951172e-01 -9.103881567716598511e-02
-5.402275919914245605e-02 5.404513478279113770e-01 -5.048706531524658203e-01
4.579390585422515869e-01 1.421253532171249390e-01 1.154040396213531494e-01
4.666197896003723145e-01 6.477311849594116211e-01 4.502727091312408447e-02
-4.632321298122406006e-01 -3.945406675338745117e-01 7.119351625442504883e-02
-4.498846828937530518e-01 -6.701979637145996094e-01 -7.496052980422973633e-02
1.249655801802873611e-02 -3.612961471080780029e-01 -5.107641220092773438e-01
2.936357855796813965e-01 -3.548800647258758545e-01 4.053149521350860596e-01
-4.543482065200805664e-01 -1.007066071033477783e-01 -4.415562376379966736e-02
3.973335027694702148e-01 1.386028975248336792e-01 2.897822558879852295e-01
-1.188893839716911316e-01 5.480630993843078613e-01 -4.504835307598114014e-01
-2.365494817495346069e-01 -1.490851789712905884e-01 -3.541869521141052246e-01
3.918325901031494141e-01 -1.274565160274505615e-01 -2.024233490228652954e-01
-9.534625709056854248e-02 -1.232774630188941956e-01 -8.169764280319213867e-01
4.319391548633575439e-01 8.184262514114379883e-01 2.140733152627944946e-01
4.553683102130889893e-01 4.266968667507171631e-01 1.349218338727951050e-01
-3.186005651950836182e-01 -6.946903467178344727e-01 -3.801651298999786377e-02
-2.019279301166534424e-01 8.214254975318908691e-01 -3.697605133056640625e-01
4.429844021797180176e-01 6.193788647651672363e-01 1.874071657657623291e-01
-2.405837923288345337e-01 -6.946903467178344727e-01 4.152693152427673340e-01
-2.616772949695587158e-01 -4.677949845790863037e-01 4.294320344924926758e-01
3.634319007396697998e-01 2.260483950376510620e-01 3.339631855487823486e-01
2.118176370859146118e-01 -6.946903467178344727e-01 3.983910754323005676e-02
-3.875412791967391968e-02 -6.946903467178344727e-01 2.136138826608657837e-01
4.540472924709320068e-01 -5.408650040626525879e-01 -5.042606219649314880e-02
2.370709329843521118e-01 -4.777272939682006836e-01 -3.541963696479797363e-01
-5.390589684247970581e-02 4.107859432697296143e-01 -4.122533202171325684e-01
3.242707252502441406e-01 4.177148640155792236e-01 3.818061947822570801e-01
9.384236484766006470e-02 -8.293479681015014648e-02 -8.342339992523193359e-01
-6.013641133904457092e-02 -2.238826751708984375e-01 5.059584975242614746e-01
-3.564709424972534180e-02 -4.905367791652679443e-01 5.091826915740966797e-01
3.339188918471336365e-02 -1.359491050243377686e-01 5.095497369766235352e-01
3.373579382896423340e-01 -4.304290711879730225e-01 3.679430484771728516e-01
4.230611622333526611e-01 -6.070086359977722168e-02 2.355072349309921265e-01
-1.643842160701751709e-01 -6.065246462821960449e-01 -3.853112459182739258e-01
-4.121564626693725586e-01 -3.578357100486755371e-01 -1.660494059324264526e-01
4.086453318595886230e-01 8.325217291712760925e-03 2.703109681606292725e-01
3.674404025077819824e-01 -5.840056538581848145e-01 -2.342115342617034912e-01
-2.117109298706054688e-01 -3.682948052883148193e-01 -3.657083809375762939e-01
2.428700923919677734e-01 5.140725970268249512e-01 -3.497460484504699707e-01
2.322454750537872314e-02 -3.771232068538665771e-01 -4.097340106964111328e-01
-3.696177899837493896e-01 -6.946903467178344727e-01 -1.259818226099014282e-01
-2.463050037622451782e-01 -4.783282279968261719e-01 -3.467013835906982422e-01
4.599416851997375488e-01 4.713254272937774658e-01 1.001999378204345703e-01
4.397553205490112305e-01 6.940720677375793457e-01 -1.006769537925720215e-01
-1.323171854019165039e-01 -6.946903467178344727e-01 -2.966506481170654297e-01
2.418335080146789551e-01 7.178873419761657715e-01 -3.505415022373199463e-01
7.370605133473873138e-03 -3.253589272499084473e-01 -4.184501767158508301e-01
-3.887935876846313477e-01 7.586044073104858398e-02 -2.057049721479415894e-01
4.513016939163208008e-01 2.187020331621170044e-01 -7.127112150192260742e-02
-4.659815132617950439e-01 -1.825633645057678223e-01 5.030753836035728455e-02
2.057778090238571167e-01 -6.946903467178344727e-01 4.189613163471221924e-01
3.094551563262939453e-01 7.347733378410339355e-01 -2.986482083797454834e-01
3.355259001255035400e-01 6.275780797004699707e-01 -2.758028805255889893e-01
4.580945968627929688e-01 3.815771043300628662e-01 1.142232790589332581e-01
-1.999562978744506836e-01 -4.936395585536956787e-01 4.651026427745819092e-01
4.574877619743347168e-01 5.532296374440193176e-02 1.188305318355560303e-01
-1.383218169212341309e-01 -6.946903467178344727e-01 -2.323062568902969360e-01
-1.978871375322341919e-01 -6.946903467178344727e-01 7.333639264106750488e-02
4.048454165458679199e-01 -6.946903467178344727e-01 1.819500774145126343e-01
-9.360671788454055786e-02 -3.763408660888671875e-01 -4.487460851669311523e-01
3.829348981380462646e-01 -3.841404318809509277e-01 3.085466623306274414e-01
5.517719686031341553e-02 -6.946903467178344727e-01 3.336992114782333374e-03
-1.762503981590270996e-01 7.524807453155517578e-01 -3.803962767124176025e-01
-3.976594507694244385e-01 -3.164385259151458740e-01 -1.941512376070022583e-01
4.626501798629760742e-01 -2.130431383848190308e-01 1.488927938044071198e-02
3.729257881641387939e-01 -6.946903467178344727e-01 2.434128671884536743e-01
-8.135662972927093506e-02 2.139967083930969238e-01 -4.086391627788543701e-01
-1.181822642683982849e-01 1.324545741081237793e-01 -4.037907123565673828e-01
3.947408869862556458e-02 -6.849137544631958008e-01 -4.142235219478607178e-01
2.606036365032196045e-01 3.625808954238891602e-01 -3.361371755599975586e-01
-2.589251101016998291e-01 5.581303238868713379e-01 -3.370177745819091797e-01
-2.254913449287414551e-01 5.397287011146545410e-01 -3.600004911422729492e-01
-2.634067833423614502e-01 2.795847058296203613e-01 -3.335789144039154053e-01
1.507010757923126221e-01 -5.263069868087768555e-01 4.857255518436431885e-01
-3.926375806331634521e-01 -2.309180498123168945e-01 -2.006956189870834351e-01
1.840591430664062500e-01 -4.078921675682067871e-01 -3.773831129074096680e-01
4.126562178134918213e-01 6.524458527565002441e-01 2.606275975704193115e-01
-3.363071382045745850e-02 3.042723238468170166e-01 -8.142629265785217285e-01
1.669695675373077393e-01 -6.946903467178344727e-01 -3.571024239063262939e-01
4.489167928695678711e-01 -2.419410198926925659e-01 -7.855915278196334839e-02
1.187354028224945068e-01 5.913630723953247070e-01 -4.037882089614868164e-01
-2.677053213119506836e-01 -5.904681086540222168e-01 -3.302805721759796143e-01
-2.364370971918106079e-01 -6.647813320159912109e-01 4.487987160682678223e-01
-3.237146139144897461e-01 -5.985383987426757812e-01 3.818312883377075195e-01
3.186072707176208496e-01 -4.594464600086212158e-01 -2.916247844696044922e-01
4.148395061492919922e-01 1.871083378791809082e-01 -1.608293056488037109e-01
1.360293328762054443e-01 -9.793782234191894531e-02 -3.972771763801574707e-01
1.169066950678825378e-01 -1.163822412490844727e-01 -8.204463720321655273e-01
3.208267390727996826e-01 4.961360692977905273e-01 -2.899215519428253174e-01
3.144697844982147217e-01 4.488157108426094055e-02 -2.947999238967895508e-01
4.362352192401885986e-01 9.821206331253051758e-02 2.037014216184616089e-01
3.703868985176086426e-01 -4.608090519905090332e-01 -2.303716093301773071e-01
3.003286719322204590e-01 -1.799005456268787384e-02 -3.056519031524658203e-01
3.255819380283355713e-01 -6.334335207939147949e-01 3.807999789714813232e-01
4.272533655166625977e-01 -6.410137414932250977e-01 2.253861427307128906e-01
-1.588126420974731445e-01 -3.911645710468292236e-01 -3.876190483570098877e-01
