-9.543657302856445312e-02 2.000053822994232178e-01 -4.073056578636169434e-01
-1.088551431894302368e-01 2.191040813922882080e-01 -4.047858119010925293e-01
-1.241859942674636841e-01 2.373334914445877075e-01 -4.011758267879486084e-01
-1.423014253377914429e-01 2.623299360275268555e-01 -3.968443274497985840e-01
-4.915665835142135620e-02 8.701948821544647217e-02 -4.143700301647186279e-01
-6.815308332443237305e-02 1.095619499683380127e-01 -4.124706387519836426e-01
-8.686161786317825317e-02 1.319767683744430542e-01 -4.095428287982940674e-01
-9.868129342794418335e-02 1.546697616577148438e-01 -4.053316116333007812e-01
-1.104138046503067017e-01 1.770859211683273315e-01 -4.018979370594024658e-01
-1.205847412347793579e-01 1.959289759397506714e-01 -3.996110260486602783e-01
-1.351319998502731323e-01 2.166647762060165405e-01 -3.961312770843505859e-01
-1.513005942106246948e-01 2.431222200393676758e-01 -3.921327888965606689e-01
-7.512264698743820190e-02 7.014535367488861084e-02 -4.112424552440643311e-01
-9.426073729991912842e-02 9.160338342189788818e-02 -4.082881808280944824e-01
-1.085417568683624268e-01 1.148283928632736206e-01 -4.026792645454406738e-01
-1.210130751132965088e-01 1.366239488124847412e-01 -3.985337018966674805e-01
-1.315623968839645386e-01 1.550195813179016113e-01 -3.945173919200897217e-01
-1.402949988842010498e-01 1.747669130563735962e-01 -3.909311890602111816e-01
-1.512146145105361938e-01 1.974917501211166382e-01 -3.879753351211547852e-01
-1.661142259836196899e-01 2.242008745670318604e-01 -3.850863277912139893e-01
-1.075827255845069885e-01 5.304566025733947754e-02 -4.013924300670623779e-01
-1.226931512355804443e-01 7.402047514915466309e-02 -3.957405984401702881e-01
-1.359725892543792725e-01 9.547349810600280762e-02 -3.914250135421752930e-01
-1.465937942266464233e-01 1.177930533885955811e-01 -3.879533112049102783e-01
-1.538234800100326538e-01 1.358610987663269043e-01 -3.851448297500610352e-01
-1.640948355197906494e-01 1.542553305625915527e-01 -3.814897239208221436e-01
-1.745830774307250977e-01 1.805248558521270752e-01 -3.787496984004974365e-01
-1.858195215463638306e-01 2.072055041790008545e-01 -3.776729404926300049e-01
3.653713464736938477e-01 7.096976041793823242e-01 -2.644653320312500000e-01
3.592916429042816162e-01 7.405824661254882812e-01 -2.669692635536193848e-01
3.560984134674072266e-01 7.637004256248474121e-01 -2.686468064785003662e-01
3.516280651092529297e-01 7.854478359222412109e-01 -2.705400586128234863e-01
3.459802865982055664e-01 8.079513907432556152e-01 -2.746014595031738281e-01
3.374916315078735352e-01 8.273319005966186523e-01 -2.811014056205749512e-01
3.253827989101409912e-01 8.344340920448303223e-01 -2.815667390823364258e-01
3.129945397377014160e-01 8.423736095428466797e-01 -2.699840962886810303e-01
3.482052087783813477e-01 6.908160448074340820e-01 -2.877600193023681641e-01
3.412945866584777832e-01 7.239190340042114258e-01 -2.885085642337799072e-01
3.372677564620971680e-01 7.518565058708190918e-01 -2.877727448940277100e-01
3.333287239074707031e-01 7.757586240768432617e-01 -2.895304858684539795e-01
3.261954784393310547e-01 7.986897230148315430e-01 -2.945584952831268311e-01
3.135778605937957764e-01 8.211732506752014160e-01 -3.020628988742828369e-01
3.032819926738739014e-01 8.349757194519042969e-01 -3.097713887691497803e-01
2.893947958946228027e-01 8.450000286102294922e-01 -3.037658929824829102e-01
3.333228826522827148e-01 6.702958345413208008e-01 -3.030429482460021973e-01
3.258072733879089355e-01 7.058201432228088379e-01 -3.044058680534362793e-01
3.191719055175781250e-01 7.373781204223632812e-01 -3.057337403297424316e-01
3.122876882553100586e-01 7.629966735839843750e-01 -3.078026771545410156e-01
3.020612597465515137e-01 7.895144820213317871e-01 -3.132985532283782959e-01
2.923172116279602051e-01 8.148816227912902832e-01 -3.211103379726409912e-01
2.821121513843536377e-01 8.320627212524414062e-01 -3.292025923728942871e-01
2.639679610729217529e-01 8.451292514801025391e-01 -3.349903523921966553e-01
3.228721022605895996e-01 6.508215665817260742e-01 -3.137056827545166016e-01
3.081543445587158203e-01 6.898291707038879395e-01 -3.213869929313659668e-01
2.985623478889465332e-01 7.235912680625915527e-01 -3.239174783229827881e-01
2.911765277385711670e-01 7.526346445083618164e-01 -3.248653709888458252e-01
2.836503386497497559e-01 7.789178490638732910e-01 -3.301393985748291016e-01
2.738475799560546875e-01 8.057528734207153320e-01 -3.360280096530914307e-01
2.604358792304992676e-01 8.285641670227050781e-01 -3.471842110157012939e-01
2.406781315803527832e-01 8.440120816230773926e-01 -3.558809459209442139e-01
3.104872703552246094e-01 6.355311274528503418e-01 -3.220220208168029785e-01
2.970571517944335938e-01 6.698799729347229004e-01 -3.317794799804687500e-01
2.853147089481353760e-01 7.081167697906494141e-01 -3.375636637210845947e-01
2.740088701248168945e-01 7.401477694511413574e-01 -3.405206203460693359e-01
2.643738687038421631e-01 7.683348059654235840e-01 -3.430986702442169189e-01
2.542680799961090088e-01 7.956407070159912109e-01 -3.515567779541015625e-01
2.389105260372161865e-01 8.192679882049560547e-01 -3.593635261058807373e-01
2.201406508684158325e-01 8.383030891418457031e-01 -3.679087758064270020e-01
2.975370287895202637e-01 6.256206631660461426e-01 -3.325315117835998535e-01
2.820826470851898193e-01 6.577574014663696289e-01 -3.413577377796173096e-01
2.665695250034332275e-01 6.973578929901123047e-01 -3.498857617378234863e-01
2.558976709842681885e-01 7.291712760925292969e-01 -3.553493916988372803e-01
2.462092787027359009e-01 7.550609707832336426e-01 -3.596141636371612549e-01
2.368077635765075684e-01 7.829053401947021484e-01 -3.625209331512451172e-01
2.202426344156265259e-01 8.084332942962646484e-01 -3.684982657432556152e-01
1.999542713165283203e-01 8.310112357139587402e-01 -3.763468861579895020e-01
2.757427096366882324e-01 6.141375303268432617e-01 -3.453765511512756348e-01
2.613216936588287354e-01 6.506705880165100098e-01 -3.547627627849578857e-01
2.443134188652038574e-01 6.887096166610717773e-01 -3.658916652202606201e-01
2.304097115993499756e-01 7.183896899223327637e-01 -3.726689517498016357e-01
2.201192677021026611e-01 7.443245649337768555e-01 -3.746563792228698730e-01
2.089550644159317017e-01 7.688955068588256836e-01 -3.764903247356414795e-01
1.929420828819274902e-01 7.962948083877563477e-01 -3.793780207633972168e-01
1.692112088203430176e-01 8.209563493728637695e-01 -3.870940506458282471e-01
2.417198121547698975e-01 6.100473403930664062e-01 -3.623979687690734863e-01
2.315210998058319092e-01 6.416257619857788086e-01 -3.736577033996582031e-01
2.138968706130981445e-01 6.798044443130493164e-01 -3.796461224555969238e-01
2.012794315814971924e-01 7.086892127990722656e-01 -3.840450644493103027e-01
1.897857040166854858e-01 7.342226505279541016e-01 -3.865983784198760986e-01
1.780761480331420898e-01 7.562634348869323730e-01 -3.889476954936981201e-01
1.620535999536514282e-01 7.823090553283691406e-01 -3.910550773143768311e-01
1.368848085403442383e-01 8.099560737609863281e-01 -3.989267349243164062e-01
4.054733365774154663e-02 -3.864953815937042236e-01 -4.176791310310363770e-01
1.385311037302017212e-02 -3.540948629379272461e-01 -4.145827889442443848e-01
-4.672892391681671143e-03 -3.282328248023986816e-01 -4.135636389255523682e-01
-2.194885164499282837e-02 -3.041124343872070312e-01 -4.144813120365142822e-01
-4.274408891797065735e-02 -2.830558717250823975e-01 -4.148361086845397949e-01
-6.318198144435882568e-02 -2.613757848739624023e-01 -4.129010438919067383e-01
-8.375308662652969360e-02 -2.297323048114776611e-01 -4.090834259986877441e-01
-1.018983572721481323e-01 -1.921971291303634644e-01 -4.027552604675292969e-01
1.308394223451614380e-02 -4.068992137908935547e-01 -4.155771732330322266e-01
-1.025683432817459106e-02 -3.722568154335021973e-01 -4.133045375347137451e-01
-2.839129418134689331e-02 -3.445695042610168457e-01 -4.130079448223114014e-01
-4.620338231325149536e-02 -3.228186964988708496e-01 -4.125165343284606934e-01
-6.525707244873046875e-02 -3.053601384162902832e-01 -4.112486541271209717e-01
-8.310183137655258179e-02 -2.858992815017700195e-01 -4.088289439678192139e-01
-1.001966223120689392e-01 -2.575883865356445312e-01 -4.034332633018493652e-01
-1.186496838927268982e-01 -2.198433727025985718e-01 -3.971095383167266846e-01
-2.547301352024078369e-03 -4.294485747814178467e-01 -4.147789180278778076e-01
-2.603463083505630493e-02 -3.960839807987213135e-01 -4.135280549526214600e-01
-4.749387130141258240e-02 -3.677341639995574951e-01 -4.119808673858642578e-01
-6.786283850669860840e-02 -3.446669578552246094e-01 -4.100700616836547852e-01
-8.519554138183593750e-02 -3.274421691894531250e-01 -4.069020152091979980e-01
-9.950673580169677734e-02 -3.084462583065032959e-01 -4.023779332637786865e-01
-1.148683354258537292e-01 -2.843926846981048584e-01 -3.971641659736633301e-01
-1.334918290376663208e-01 -2.501099109649658203e-01 -3.917686045169830322e-01
-1.881261914968490601e-02 -4.513380527496337891e-01 -4.144087433815002441e-01
-4.067884385585784912e-02 -4.225758016109466553e-01 -4.133397340774536133e-01
-6.555717438459396362e-02 -3.933710753917694092e-01 -4.100631475448608398e-01
-8.511217683553695679e-02 -3.686955571174621582e-01 -4.063097834587097168e-01
-9.967001527547836304e-02 -3.486179113388061523e-01 -4.022426009178161621e-01
-1.134866476058959961e-01 -3.287388086318969727e-01 -3.971269130706787109e-01
-1.258585900068283081e-01 -3.082623481750488281e-01 -3.925883471965789795e-01
-1.444100141525268555e-01 -2.756614685058593750e-01 -3.872903585433959961e-01
-3.621260076761245728e-02 -4.731363058090209961e-01 -4.138599932193756104e-01
-6.126670539379119873e-02 -4.461493194103240967e-01 -4.105511009693145752e-01
-8.407460153102874756e-02 -4.183081090450286865e-01 -4.070788621902465820e-01
-1.025443971157073975e-01 -3.944796919822692871e-01 -4.021015167236328125e-01
-1.140534430742263794e-01 -3.735294938087463379e-01 -3.977320492267608643e-01
-1.248713806271553040e-01 -3.530876934528350830e-01 -3.933791518211364746e-01
-1.355042308568954468e-01 -3.325160741806030273e-01 -3.886823356151580811e-01
-1.556308120489120483e-01 -3.039934635162353516e-01 -3.828045129776000977e-01
-6.207754462957382202e-02 -4.973514080047607422e-01 -4.106617867946624756e-01
-8.702939003705978394e-02 -4.700211286544799805e-01 -4.074054360389709473e-01
-1.063248589634895325e-01 -4.444494843482971191e-01 -4.023250937461853027e-01
-1.181531399488449097e-01 -4.201146364212036133e-01 -3.975155949592590332e-01
-1.271801292896270752e-01 -3.983813822269439697e-01 -3.925930261611938477e-01
-1.371443122625350952e-01 -3.781947493553161621e-01 -3.885232210159301758e-01
-1.509159505367279053e-01 -3.570553362369537354e-01 -3.832607865333557129e-01
-1.699241399765014648e-01 -3.281462192535400391e-01 -3.778547644615173340e-01
-9.505272656679153442e-02 -5.181624293327331543e-01 -4.060403406620025635e-01
-1.131635308265686035e-01 -4.916496276855468750e-01 -4.012288749217987061e-01
-1.257177442312240601e-01 -4.661321043968200684e-01 -3.951223492622375488e-01
-1.361642330884933472e-01 -4.431908726692199707e-01 -3.902999162673950195e-01
-1.467629969120025635e-01 -4.218201935291290283e-01 -3.856088817119598389e-01
-1.568693071603775024e-01 -4.025542140007019043e-01 -3.804847300052642822e-01
-1.707393825054168701e-01 -3.811584413051605225e-01 -3.765042722225189209e-01
-1.845499873161315918e-01 -3.502387702465057373e-01 -3.731502294540405273e-01
-1.243578344583511353e-01 -5.297904014587402344e-01 -3.896937370300292969e-01
-1.402769237756729126e-01 -5.097199678421020508e-01 -3.895050883293151855e-01
-1.520109474658966064e-01 -4.857988357543945312e-01 -3.859945535659790039e-01
-1.622532010078430176e-01 -4.660185277462005615e-01 -3.819429278373718262e-01
-1.727928817272186279e-01 -4.449441432952880859e-01 -3.771057128906250000e-01
-1.831180751323699951e-01 -4.272958040237426758e-01 -3.723295927047729492e-01
-1.909106373786926270e-01 -4.003878533840179443e-01 -3.701550066471099854e-01
-2.020210325717926025e-01 -3.712157905101776123e-01 -3.679303526878356934e-01
4.358655810356140137e-01 -3.516713976860046387e-01 2.360555827617645264e-01
4.376503527164459229e-01 -3.222356438636779785e-01 2.271396815776824951e-01
4.399610161781311035e-01 -2.939587831497192383e-01 2.195614576339721680e-01
4.423188567161560059e-01 -2.628392875194549561e-01 2.155202478170394897e-01
4.433277845382690430e-01 -2.218413949012756348e-01 2.144351601600646973e-01
4.434052407741546631e-01 -1.738268435001373291e-01 2.099083811044692993e-01
4.439809620380401611e-01 -1.323003619909286499e-01 2.050213962793350220e-01
4.369762539863586426e-01 -1.048851460218429565e-01 2.163194864988327026e-01
4.416678249835968018e-01 -3.775164484977722168e-01 2.115173041820526123e-01
4.452889859676361084e-01 -3.456504642963409424e-01 2.019910514354705811e-01
4.496688842773437500e-01 -3.173104226589202881e-01 1.901414096355438232e-01
4.523659348487854004e-01 -2.854980230331420898e-01 1.830681562423706055e-01
4.539171159267425537e-01 -2.455945760011672974e-01 1.803494691848754883e-01
4.528751075267791748e-01 -1.963690817356109619e-01 1.833021342754364014e-01
4.496607184410095215e-01 -1.463896632194519043e-01 1.934964060783386230e-01
4.397318065166473389e-01 -1.034394502639770508e-01 2.138656079769134521e-01
4.461388289928436279e-01 -4.024014472961425781e-01 1.879650056362152100e-01
4.509942233562469482e-01 -3.676247298717498779e-01 1.746669113636016846e-01
4.546619951725006104e-01 -3.353012800216674805e-01 1.664385795593261719e-01
4.538042545318603516e-01 -3.048661053180694580e-01 1.718641519546508789e-01
4.514641165733337402e-01 -2.742744088172912598e-01 1.846809685230255127e-01
4.483382701873779297e-01 -2.345290184020996094e-01 1.991714388132095337e-01
4.396567046642303467e-01 -1.828854382038116455e-01 2.147919237613677979e-01
4.289049506187438965e-01 -1.280887871980667114e-01 2.331599295139312744e-01
4.498576521873474121e-01 -4.268541336059570312e-01 1.728902161121368408e-01
4.524699449539184570e-01 -3.896130323410034180e-01 1.633832603693008423e-01
4.517296552658081055e-01 -3.583053648471832275e-01 1.720816493034362793e-01
4.502835273742675781e-01 -3.255088329315185547e-01 1.856975704431533813e-01
4.465069472789764404e-01 -2.979931533336639404e-01 1.977872103452682495e-01
4.401104748249053955e-01 -2.626216113567352295e-01 2.107648551464080811e-01
4.307522773742675781e-01 -2.196373641490936279e-01 2.284487336874008179e-01
4.207514524459838867e-01 -1.633301675319671631e-01 2.474268823862075806e-01
4.489900767803192139e-01 -4.555611610412597656e-01 1.779209375381469727e-01
4.493649005889892578e-01 -4.131291210651397705e-01 1.782247275114059448e-01
4.480268061161041260e-01 -3.814756572246551514e-01 1.868339926004409790e-01
4.429907500743865967e-01 -3.494566679000854492e-01 2.006984949111938477e-01
4.379877448081970215e-01 -3.207723200321197510e-01 2.116288244724273682e-01
4.318980872631072998e-01 -2.909617125988006592e-01 2.239570617675781250e-01
4.251012504100799561e-01 -2.536848187446594238e-01 2.373310327529907227e-01
4.155819118022918701e-01 -2.023809552192687988e-01 2.544818222522735596e-01
4.418653845787048340e-01 -4.861467182636260986e-01 1.961916238069534302e-01
4.423119127750396729e-01 -4.419323205947875977e-01 2.105035632848739624e-01
4.376440048217773438e-01 -4.056147336959838867e-01 2.149520665407180786e-01
4.340863823890686035e-01 -3.753094375133514404e-01 2.207242846488952637e-01
4.305541515350341797e-01 -3.453031778335571289e-01 2.267061918973922729e-01
4.253518283367156982e-01 -3.175253868103027344e-01 2.353117763996124268e-01
4.198065996170043945e-01 -2.844244837760925293e-01 2.473822832107543945e-01
4.110123813152313232e-01 -2.359187752008438110e-01 2.597963213920593262e-01
4.393377602100372314e-01 -4.659186005592346191e-01 1.742078959941864014e-01
4.277835488319396973e-01 -4.715594649314880371e-01 2.441333234310150146e-01
4.241389334201812744e-01 -4.272947609424591064e-01 2.561611831188201904e-01
4.227385520935058594e-01 -3.952195048332214355e-01 2.559111118316650391e-01
4.211143255233764648e-01 -3.706193566322326660e-01 2.559610605239868164e-01
4.175940454006195068e-01 -3.409997820854187012e-01 2.572267651557922363e-01
4.119877517223358154e-01 -3.065930902957916260e-01 2.637899816036224365e-01
4.042560458183288574e-01 -2.656923532485961914e-01 2.758796811103820801e-01
4.398466348648071289e-01 -4.038529992103576660e-01 1.864629536867141724e-01
4.218124151229858398e-01 -4.547434449195861816e-01 2.302158027887344360e-01
4.117946922779083252e-01 -4.500225186347961426e-01 2.750292122364044189e-01
4.102767407894134521e-01 -4.168902635574340820e-01 2.797846198081970215e-01
4.095745086669921875e-01 -3.921653330326080322e-01 2.819717824459075928e-01
4.068195223808288574e-01 -3.656108677387237549e-01 2.840307652950286865e-01
4.015339910984039307e-01 -3.281621336936950684e-01 2.889331281185150146e-01
3.947665393352508545e-01 -2.903426885604858398e-01 2.989553511142730713e-01
4.782850667834281921e-02 3.463662862777709961e-01 5.163075923919677734e-01
2.878872677683830261e-02 3.769258260726928711e-01 5.183780193328857422e-01
1.481553539633750916e-02 3.980795145034790039e-01 5.194268226623535156e-01
2.367626875638961792e-03 4.231868386268615723e-01 5.204660892486572266e-01
-1.201793178915977478e-02 4.550332725048065186e-01 5.199748873710632324e-01
-2.475601434707641602e-02 4.846454262733459473e-01 5.195220112800598145e-01
-3.630286827683448792e-02 5.205950736999511719e-01 5.190243124961853027e-01
-5.123614147305488586e-02 5.593866705894470215e-01 5.223487019538879395e-01
2.401564642786979675e-02 3.316875696182250977e-01 5.194045901298522949e-01
7.528033107519149780e-03 3.574106991291046143e-01 5.203465223312377930e-01
-8.290149271488189697e-03 3.839194476604461670e-01 5.212936997413635254e-01
-2.222294360399246216e-02 4.077861309051513672e-01 5.220643877983093262e-01
-3.357645124197006226e-02 4.356387257575988770e-01 5.210808515548706055e-01
-4.513323307037353516e-02 4.652626812458038330e-01 5.196267962455749512e-01
-5.708605796098709106e-02 4.995287060737609863e-01 5.170583128929138184e-01
-7.379063963890075684e-02 5.410550832748413086e-01 5.108231902122497559e-01
3.959659487009048462e-03 3.174214363098144531e-01 5.211704373359680176e-01
-1.299961283802986145e-02 3.440915048122406006e-01 5.216731429100036621e-01
-2.837098017334938049e-02 3.695468902587890625e-01 5.219511389732360840e-01
-4.156532138586044312e-02 3.942742943763732910e-01 5.212305784225463867e-01
-5.296539142727851868e-02 4.162657558917999268e-01 5.202583670616149902e-01
-6.344695389270782471e-02 4.438911080360412598e-01 5.189972519874572754e-01
-7.824509590864181519e-02 4.761012494564056396e-01 5.118913650512695312e-01
-9.385986626148223877e-02 5.182543992996215820e-01 5.059729218482971191e-01
-1.455568522214889526e-02 2.986686825752258301e-01 5.216394662857055664e-01
-3.035176172852516174e-02 3.292006254196166992e-01 5.215141177177429199e-01
-4.467371478676795959e-02 3.534561395645141602e-01 5.204955339431762695e-01
-5.625370889902114868e-02 3.725972175598144531e-01 5.200363993644714355e-01
-6.695821881294250488e-02 3.957637846469879150e-01 5.191811323165893555e-01
-7.825791835784912109e-02 4.223037362098693848e-01 5.142884850502014160e-01
-9.283156692981719971e-02 4.542091488838195801e-01 5.088886022567749023e-01
-1.106952726840972900e-01 4.961265623569488525e-01 5.026512742042541504e-01
-3.064788877964019775e-02 2.807075381278991699e-01 5.218322277069091797e-01
-4.753324761986732483e-02 3.121998310089111328e-01 5.198711752891540527e-01
-6.173632666468620300e-02 3.349182605743408203e-01 5.188311338424682617e-01
-7.188315689563751221e-02 3.519158661365509033e-01 5.176383256912231445e-01
-8.064299821853637695e-02 3.726000189781188965e-01 5.145394802093505859e-01
-9.341549128293991089e-02 4.018075764179229736e-01 5.097843408584594727e-01
-1.066745817661285400e-01 4.322377443313598633e-01 5.054429173469543457e-01
-1.252779662609100342e-01 4.744919538497924805e-01 4.999966621398925781e-01
-5.000842362642288208e-02 2.649112939834594727e-01 5.199376940727233887e-01
-6.797350943088531494e-02 2.896655201911926270e-01 5.184516310691833496e-01
-8.049710094928741455e-02 3.143308162689208984e-01 5.139506459236145020e-01
-9.014747291803359985e-02 3.334967195987701416e-01 5.111252665519714355e-01
-9.933789074420928955e-02 3.531869053840637207e-01 5.082983970642089844e-01
-1.130405142903327942e-01 3.777729570865631104e-01 5.042052865028381348e-01
-1.228617355227470398e-01 4.107259809970855713e-01 5.015888810157775879e-01
-1.409131586551666260e-01 4.513608515262603760e-01 4.961971044540405273e-01
-7.759454101324081421e-02 2.438408285379409790e-01 5.158151388168334961e-01
-9.169459342956542969e-02 2.713120579719543457e-01 5.122576951980590820e-01
-1.060608103871345520e-01 2.940093576908111572e-01 5.083797574043273926e-01
-1.150542721152305603e-01 3.166481852531433105e-01 5.038790106773376465e-01
-1.251317709684371948e-01 3.365296423435211182e-01 5.011323094367980957e-01
-1.340647339820861816e-01 3.584051728248596191e-01 4.988220036029815674e-01
-1.430274546146392822e-01 3.871784210205078125e-01 4.959007203578948975e-01
-1.570483893156051636e-01 4.270757436752319336e-01 4.903017580509185791e-01
-1.226215809583663940e-01 2.430608123540878296e-01 5.085823535919189453e-01
-1.330502480268478394e-01 2.589373588562011719e-01 5.036786794662475586e-01
-1.420623809099197388e-01 2.827834486961364746e-01 4.992817044258117676e-01
-1.482019722461700439e-01 3.038667142391204834e-01 4.960538744926452637e-01
-1.512182205915451050e-01 3.244089484214782715e-01 4.943259358406066895e-01
-1.552376747131347656e-01 3.441603481769561768e-01 4.921771883964538574e-01
-1.626776456832885742e-01 3.684144318103790283e-01 4.876392781734466553e-01
-1.752153486013412476e-01 4.026422500610351562e-01 4.826955199241638184e-01
3.413211703300476074e-01 -2.505091018974781036e-02 3.716373145580291748e-01
3.336863517761230469e-01 1.308953040279448032e-03 3.840126693248748779e-01
3.280434012413024902e-01 2.758229337632656097e-02 3.932365179061889648e-01
3.204802274703979492e-01 5.279608443379402161e-02 4.020466506481170654e-01
3.098978996276855469e-01 8.146182447671890259e-02 4.103595912456512451e-01
2.976297736167907715e-01 1.073126420378684998e-01 4.194670915603637695e-01
2.837797999382019043e-01 1.358198225498199463e-01 4.246731996536254883e-01
2.653649449348449707e-01 1.678526699542999268e-01 4.329249262809753418e-01
3.270190954208374023e-01 -3.951549902558326721e-02 3.909554481506347656e-01
3.155626654624938965e-01 -1.390494592487812042e-02 4.038234353065490723e-01
3.050010502338409424e-01 1.040597446262836456e-02 4.153096675872802734e-01
2.954012751579284668e-01 3.425251320004463196e-02 4.235026538372039795e-01
2.826660871505737305e-01 5.936596170067787170e-02 4.295886158943176270e-01
2.706128954887390137e-01 8.537579327821731567e-02 4.376329481601715088e-01
2.570694983005523682e-01 1.138491556048393250e-01 4.465305209159851074e-01
2.413357496261596680e-01 1.476648449897766113e-01 4.556359052658081055e-01
3.161053061485290527e-01 -5.923877656459808350e-02 4.038503170013427734e-01
2.995720505714416504e-01 -3.008564375340938568e-02 4.196339547634124756e-01
2.861340641975402832e-01 -5.757486913353204727e-03 4.300265014171600342e-01
2.768194675445556641e-01 1.646965183317661285e-02 4.365703761577606201e-01
2.657368183135986328e-01 3.994890674948692322e-02 4.434341192245483398e-01
2.544573843479156494e-01 6.509307771921157837e-02 4.509924650192260742e-01
2.422110140323638916e-01 9.400048106908798218e-02 4.585827887058258057e-01
2.288732230663299561e-01 1.322257369756698608e-01 4.647492766380310059e-01
3.036501407623291016e-01 -7.934219390153884888e-02 4.164639711380004883e-01
2.878164649009704590e-01 -5.001258850097656250e-02 4.308897852897644043e-01
2.761782407760620117e-01 -2.497006766498088837e-02 4.403007328510284424e-01
2.655218243598937988e-01 -2.907844725996255875e-03 4.473969638347625732e-01
2.542468011379241943e-01 1.960024796426296234e-02 4.533753097057342529e-01
2.437360733747482300e-01 4.182578250765800476e-02 4.585000872611999512e-01
2.302546799182891846e-01 7.040265947580337524e-02 4.648171365261077881e-01
2.173782885074615479e-01 1.122879609465599060e-01 4.708813428878784180e-01
2.931976020336151123e-01 -9.962374716997146606e-02 4.271359443664550781e-01
2.779781818389892578e-01 -6.807828694581985474e-02 4.388507604598999023e-01
2.666115462779998779e-01 -4.251230135560035706e-02 4.470977485179901123e-01
2.568749785423278809e-01 -2.141824178397655487e-02 4.539258778095245361e-01
2.453979402780532837e-01 -1.903253025375306606e-03 4.593041539192199707e-01
2.327782213687896729e-01 2.038113959133625031e-02 4.640316963195800781e-01
2.199307531118392944e-01 4.847924783825874329e-02 4.695805311203002930e-01
2.059827148914337158e-01 8.904656022787094116e-02 4.756117463111877441e-01
2.824598848819732666e-01 -1.210649237036705017e-01 4.335697591304779053e-01
2.675270736217498779e-01 -8.852148801088333130e-02 4.446653425693511963e-01
2.562447786331176758e-01 -6.001137569546699524e-02 4.527165591716766357e-01
2.452917397022247314e-01 -4.033371061086654663e-02 4.591698646545410156e-01
2.334380000829696655e-01 -2.099808491766452789e-02 4.654213786125183105e-01
2.218750715255737305e-01 -9.896330302581191063e-04 4.705586433410644531e-01
2.114642411470413208e-01 2.615858055651187897e-02 4.742177426815032959e-01
1.931968778371810913e-01 6.457901746034622192e-02 4.805002808570861816e-01
2.690485715866088867e-01 -1.418839246034622192e-01 4.414460957050323486e-01
2.555027306079864502e-01 -1.082643643021583557e-01 4.514122605323791504e-01
2.425824552774429321e-01 -8.116754144430160522e-02 4.593107700347900391e-01
2.326142936944961548e-01 -5.720797181129455566e-02 4.654363095760345459e-01
2.210421264171600342e-01 -3.842154517769813538e-02 4.715643227100372314e-01
2.112841606140136719e-01 -1.977740973234176636e-02 4.758838415145874023e-01
1.973820477724075317e-01 5.070728715509176254e-03 4.806061983108520508e-01
1.777448952198028564e-01 3.935737535357475281e-02 4.862145781517028809e-01
2.488351166248321533e-01 -1.537674069404602051e-01 4.523247480392456055e-01
2.318864315748214722e-01 -1.249521598219871521e-01 4.642665982246398926e-01
2.206577509641647339e-01 -1.023029759526252747e-01 4.717151522636413574e-01
2.113622426986694336e-01 -7.938466221094131470e-02 4.777755737304687500e-01
2.025623917579650879e-01 -5.792360752820968628e-02 4.813940823078155518e-01
1.883356422185897827e-01 -3.543494641780853271e-02 4.867541491985321045e-01
1.711712777614593506e-01 -1.129149459302425385e-02 4.928085207939147949e-01
1.508304327726364136e-01 1.986495591700077057e-02 4.991268217563629150e-01
4.644232392311096191e-01 1.773616075515747070e-01 3.325332701206207275e-02
4.645082354545593262e-01 2.121469080448150635e-01 2.927050739526748657e-02
4.653038084506988525e-01 2.440953850746154785e-01 2.414864301681518555e-02
4.655973613262176514e-01 2.845752835273742676e-01 1.906541734933853149e-02
4.658146798610687256e-01 3.271450102329254150e-01 1.593012362718582153e-02
4.670996665954589844e-01 3.626996278762817383e-01 1.796943694353103638e-02
4.664675295352935791e-01 3.940046429634094238e-01 1.891478151082992554e-02
4.679414629936218262e-01 4.197961091995239258e-01 3.150667995214462280e-02
4.633445441722869873e-01 1.614387184381484985e-01 8.478082716464996338e-03
4.628714025020599365e-01 1.977449804544448853e-01 3.436937928199768066e-03
4.623508155345916748e-01 2.284160852432250977e-01 3.370195627212524414e-04
4.630334079265594482e-01 2.645572423934936523e-01 -3.284476697444915771e-04
4.637315571308135986e-01 3.089463114738464355e-01 -3.890495747327804565e-03
4.633495509624481201e-01 3.502934575080871582e-01 -8.040729910135269165e-03
4.632340073585510254e-01 3.863769173622131348e-01 -1.028721407055854797e-02
4.629122018814086914e-01 4.228612184524536133e-01 -1.168344542384147644e-02
4.611601829528808594e-01 1.451735198497772217e-01 -7.745373994112014771e-03
4.608585834503173828e-01 1.791023313999176025e-01 -1.290030404925346375e-02
4.609185457229614258e-01 2.132415771484375000e-01 -1.675593480467796326e-02
4.610752463340759277e-01 2.432492971420288086e-01 -1.827459782361984253e-02
4.607972800731658936e-01 2.867739200592041016e-01 -2.198237553238868713e-02
4.597004354000091553e-01 3.284959197044372559e-01 -3.004113212227821350e-02
4.589112699031829834e-01 3.702720403671264648e-01 -3.773682937026023865e-02
4.570370316505432129e-01 4.108935892581939697e-01 -4.182210564613342285e-02
4.601026177406311035e-01 1.272223889827728271e-01 -2.133128046989440918e-02
4.590840041637420654e-01 1.621044278144836426e-01 -2.532718703150749207e-02
4.589076042175292969e-01 1.929808408021926880e-01 -2.933622524142265320e-02
4.592541456222534180e-01 2.259928882122039795e-01 -3.271098062396049500e-02
4.583977460861206055e-01 2.602145969867706299e-01 -3.838452324271202087e-02
4.571182429790496826e-01 3.019648194313049316e-01 -4.517554119229316711e-02
4.556416273117065430e-01 3.458911776542663574e-01 -5.368592962622642517e-02
4.535315632820129395e-01 3.925384581089019775e-01 -6.141205132007598877e-02
4.575451910495758057e-01 1.086805611848831177e-01 -3.420983627438545227e-02
4.568976759910583496e-01 1.484084427356719971e-01 -3.709070757031440735e-02
4.568875133991241455e-01 1.786086410284042358e-01 -3.975940495729446411e-02
4.566347002983093262e-01 2.094375491142272949e-01 -4.431869089603424072e-02
4.558258056640625000e-01 2.400051951408386230e-01 -4.954054206609725952e-02
4.543901979923248291e-01 2.759821116924285889e-01 -5.700208991765975952e-02
4.523945450782775879e-01 3.193016946315765381e-01 -6.713890284299850464e-02
4.475503265857696533e-01 3.709325790405273438e-01 -7.845934480428695679e-02
4.546331763267517090e-01 9.583806991577148438e-02 -4.557573422789573669e-02
4.542761445045471191e-01 1.312965005636215210e-01 -4.889921471476554871e-02
4.536885023117065430e-01 1.626483947038650513e-01 -5.290364474058151245e-02
4.533337652683258057e-01 1.937426030635833740e-01 -5.812522023916244507e-02
4.524325132369995117e-01 2.253240346908569336e-01 -6.422281265258789062e-02
4.489493370056152344e-01 2.587119638919830322e-01 -7.364261150360107422e-02
4.454490244388580322e-01 2.959865331649780273e-01 -8.287146687507629395e-02
4.417583942413330078e-01 3.411080539226531982e-01 -9.269256889820098877e-02
4.508995413780212402e-01 8.040626347064971924e-02 -6.424118578433990479e-02
4.487726390361785889e-01 1.176116168498992920e-01 -6.601764261722564697e-02
4.476765394210815430e-01 1.493406444787979126e-01 -6.995192915201187134e-02
4.464265704154968262e-01 1.800310164690017700e-01 -7.614123076200485229e-02
4.448005855083465576e-01 2.097788751125335693e-01 -8.170058578252792358e-02
4.419980645179748535e-01 2.411709427833557129e-01 -9.054939448833465576e-02
4.392010569572448730e-01 2.743980288505554199e-01 -9.851375222206115723e-02
4.364665746688842773e-01 3.124574720859527588e-01 -1.073171272873878479e-01
4.400967061519622803e-01 6.284469366073608398e-02 -8.565015345811843872e-02
4.385237991809844971e-01 1.070873886346817017e-01 -8.705651015043258667e-02
4.378676116466522217e-01 1.386212110519409180e-01 -9.112024307250976562e-02
4.373336434364318848e-01 1.678617447614669800e-01 -9.773689508438110352e-02
4.366743564605712891e-01 1.954044252634048462e-01 -1.016632318496704102e-01
4.352813661098480225e-01 2.227771431207656860e-01 -1.072788387537002563e-01
4.330170154571533203e-01 2.556213140487670898e-01 -1.159074008464813232e-01
4.304220080375671387e-01 2.888202369213104248e-01 -1.240551173686981201e-01
3.185152113437652588e-01 -3.485488891601562500e-01 -2.882789969444274902e-01
3.115023374557495117e-01 -3.135500252246856689e-01 -2.954480946063995361e-01
3.069776296615600586e-01 -2.808327078819274902e-01 -3.010993003845214844e-01
3.019392788410186768e-01 -2.500223219394683838e-01 -3.058896958827972412e-01
2.959522604942321777e-01 -2.098384648561477661e-01 -3.100059628486633301e-01
2.901261150836944580e-01 -1.712080389261245728e-01 -3.150809705257415771e-01
2.807782590389251709e-01 -1.398031860589981079e-01 -3.227460086345672607e-01
2.699897587299346924e-01 -1.049013584852218628e-01 -3.342888355255126953e-01
3.054720759391784668e-01 -3.714846670627593994e-01 -3.010176122188568115e-01
2.962502241134643555e-01 -3.304539322853088379e-01 -3.059230744838714600e-01
2.888421416282653809e-01 -2.938524484634399414e-01 -3.122549951076507568e-01
2.827574908733367920e-01 -2.607899308204650879e-01 -3.190111815929412842e-01
2.776824831962585449e-01 -2.278950661420822144e-01 -3.243419528007507324e-01
2.714807093143463135e-01 -1.897854506969451904e-01 -3.298601210117340088e-01
2.599625587463378906e-01 -1.514358669519424438e-01 -3.391679227352142334e-01
2.463663816452026367e-01 -1.163787096738815308e-01 -3.504641652107238770e-01
2.911102175712585449e-01 -3.892043828964233398e-01 -3.101835548877716064e-01
2.801375389099121094e-01 -3.516745865345001221e-01 -3.166116476058959961e-01
2.717128098011016846e-01 -3.093174695968627930e-01 -3.243358135223388672e-01
2.659790813922882080e-01 -2.766392529010772705e-01 -3.303282260894775391e-01
2.588326334953308105e-01 -2.446355223655700684e-01 -3.362329602241516113e-01
2.493178844451904297e-01 -2.071116864681243896e-01 -3.456961810588836670e-01
2.407672703266143799e-01 -1.701364517211914062e-01 -3.538390100002288818e-01
2.267428338527679443e-01 -1.319608092308044434e-01 -3.608660995960235596e-01
2.764661908149719238e-01 -4.076297879219055176e-01 -3.186640143394470215e-01
2.639453709125518799e-01 -3.734241425991058350e-01 -3.289614617824554443e-01
2.539783716201782227e-01 -3.328333497047424316e-01 -3.361125290393829346e-01
2.473809719085693359e-01 -2.955120503902435303e-01 -3.422908782958984375e-01
2.399359047412872314e-01 -2.610627114772796631e-01 -3.512549102306365967e-01
2.312694340944290161e-01 -2.266006022691726685e-01 -3.580273687839508057e-01
2.207164019346237183e-01 -1.891692131757736206e-01 -3.633110225200653076e-01
2.076175957918167114e-01 -1.490322649478912354e-01 -3.690201938152313232e-01
2.582758069038391113e-01 -4.226290881633758545e-01 -3.303827643394470215e-01
2.438282072544097900e-01 -3.915272951126098633e-01 -3.413889110088348389e-01
2.349327951669692993e-01 -3.561995029449462891e-01 -3.503750860691070557e-01
2.275529652833938599e-01 -3.162453472614288330e-01 -3.578337430953979492e-01
2.189688086509704590e-01 -2.813825011253356934e-01 -3.627681136131286621e-01
2.105940729379653931e-01 -2.468051910400390625e-01 -3.671416938304901123e-01
2.004925012588500977e-01 -2.100609987974166870e-01 -3.719823956489562988e-01
1.869566440582275391e-01 -1.681719869375228882e-01 -3.781916797161102295e-01
2.370924800634384155e-01 -4.347696304321289062e-01 -3.426862657070159912e-01
2.209470123052597046e-01 -4.057332277297973633e-01 -3.570746183395385742e-01
2.093201130628585815e-01 -3.753143548965454102e-01 -3.644471764564514160e-01
2.032146006822586060e-01 -3.395794034004211426e-01 -3.676172792911529541e-01
1.961978673934936523e-01 -3.017094433307647705e-01 -3.717838823795318604e-01
1.880199760198593140e-01 -2.673205733299255371e-01 -3.758420348167419434e-01
1.771445423364639282e-01 -2.299137860536575317e-01 -3.809472918510437012e-01
1.653386205434799194e-01 -1.871017366647720337e-01 -3.860884308815002441e-01
2.070549726486206055e-01 -4.522196054458618164e-01 -3.602232336997985840e-01
1.941726207733154297e-01 -4.156154990196228027e-01 -3.692565262317657471e-01
1.834623366594314575e-01 -3.877482116222381592e-01 -3.747130334377288818e-01
1.771796345710754395e-01 -3.602775633335113525e-01 -3.777982890605926514e-01
1.702777743339538574e-01 -3.218114376068115234e-01 -3.811621665954589844e-01
1.620888859033584595e-01 -2.866225540637969971e-01 -3.853483796119689941e-01
1.539879143238067627e-01 -2.529490590095520020e-01 -3.888554573059082031e-01
1.426147222518920898e-01 -2.078748196363449097e-01 -3.936232030391693115e-01
1.709433346986770630e-01 -4.498705267906188965e-01 -3.782491683959960938e-01
1.706190705299377441e-01 -4.264850616455078125e-01 -3.786498904228210449e-01
1.613174229860305786e-01 -3.965662717819213867e-01 -3.836343586444854736e-01
1.527737975120544434e-01 -3.715527653694152832e-01 -3.879280686378479004e-01
1.467120051383972168e-01 -3.451740443706512451e-01 -3.906439244747161865e-01
1.386270523071289062e-01 -3.078725039958953857e-01 -3.940450251102447510e-01
1.285001337528228760e-01 -2.730190455913543701e-01 -3.986850976943969727e-01
1.190906316041946411e-01 -2.305933088064193726e-01 -4.046366512775421143e-01
-4.064963459968566895e-01 7.617905139923095703e-01 -1.811844855546951294e-01
-4.243881106376647949e-01 8.350667357444763184e-01 -1.647676378488540649e-01
-4.235211014747619629e-01 8.453245759010314941e-01 -1.217520982027053833e-01
-4.316596686840057373e-01 8.527719378471374512e-01 -7.582540065050125122e-02
-4.390981495380401611e-01 8.542915582656860352e-01 -4.183560609817504883e-02
-4.471659362316131592e-01 8.545789718627929688e-01 -3.837317228317260742e-03
-4.558884799480438232e-01 8.552089929580688477e-01 4.665282368659973145e-02
-4.666006863117218018e-01 8.587704300880432129e-01 9.574022889137268066e-02
-4.253806471824645996e-01 7.135152816772460938e-01 -1.584083139896392822e-01
-4.309097230434417725e-01 7.935701012611389160e-01 -1.498048007488250732e-01
-4.319072365760803223e-01 8.384862542152404785e-01 -1.340176165103912354e-01
-4.387356340885162354e-01 8.479550480842590332e-01 -9.029252827167510986e-02
-4.451593756675720215e-01 8.523499369621276855e-01 -5.901202932000160217e-02
-4.528605341911315918e-01 8.539732694625854492e-01 -1.985999941825866699e-02
-4.566725492477416992e-01 8.542639017105102539e-01 2.712053060531616211e-02
-4.608826041221618652e-01 8.557960987091064453e-01 7.111799716949462891e-02
-4.280960261821746826e-01 6.890361905097961426e-01 -1.546927988529205322e-01
-4.414199590682983398e-01 7.468068003654479980e-01 -1.018423512578010559e-01
-4.442327916622161865e-01 8.101706504821777344e-01 -1.087820008397102356e-01
-4.463663697242736816e-01 8.386356234550476074e-01 -9.811951965093612671e-02
-4.506665468215942383e-01 8.463727831840515137e-01 -6.713308393955230713e-02
-4.545480012893676758e-01 8.497214317321777344e-01 -3.432048857212066650e-02
-4.592405557632446289e-01 8.521257042884826660e-01 9.920693933963775635e-03
-4.622421860694885254e-01 8.526520729064941406e-01 5.017451941967010498e-02
-4.288809001445770264e-01 6.997910737991333008e-01 -1.646403074264526367e-01
-4.492465853691101074e-01 7.113378643989562988e-01 -8.575613796710968018e-02
-4.563472867012023926e-01 7.705263495445251465e-01 -6.929520517587661743e-02
-4.535889625549316406e-01 8.200999498367309570e-01 -8.151923120021820068e-02
-4.515028297901153564e-01 8.392246365547180176e-01 -7.820861786603927612e-02
-4.544412493705749512e-01 8.451644778251647949e-01 -5.106702819466590881e-02
-4.586159586906433105e-01 8.488981127738952637e-01 -1.477041840553283691e-02
-4.623013138771057129e-01 8.510670065879821777e-01 2.731250226497650146e-02
-4.187644124031066895e-01 7.322773933410644531e-01 -1.656701266765594482e-01
-4.489694833755493164e-01 7.000013589859008789e-01 -9.926565736532211304e-02
-4.619048237800598145e-01 7.369201183319091797e-01 -5.040679499506950378e-02
-4.595940709114074707e-01 7.888376712799072266e-01 -4.566576331853866577e-02
-4.570377469062805176e-01 8.233783841133117676e-01 -5.885089561343193054e-02
-4.548230469226837158e-01 8.394501209259033203e-01 -5.953657999634742737e-02
-4.571517705917358398e-01 8.446903228759765625e-01 -3.479561954736709595e-02
-4.613291621208190918e-01 8.488837480545043945e-01 1.796744763851165771e-03
-4.151554703712463379e-01 7.701071500778198242e-01 -1.595329940319061279e-01
-4.412871897220611572e-01 7.270066738128662109e-01 -1.094449460506439209e-01
-4.628188014030456543e-01 7.116261720657348633e-01 -5.068324133753776550e-02
-4.657360911369323730e-01 7.533894777297973633e-01 -2.671945095062255859e-02
-4.627802968025207520e-01 7.941504120826721191e-01 -2.287969738245010376e-02
-4.599974155426025391e-01 8.248297572135925293e-01 -3.622679412364959717e-02
-4.593150615692138672e-01 8.385865092277526855e-01 -3.876452893018722534e-02
-4.617983698844909668e-01 8.449047207832336426e-01 -1.394017785787582397e-02
-4.161470532417297363e-01 7.977960109710693359e-01 -1.478547304868698120e-01
-4.354798793792724609e-01 7.689596414566040039e-01 -1.066734418272972107e-01
-4.574886560440063477e-01 7.330875396728515625e-01 -6.694386899471282959e-02
-4.672657251358032227e-01 7.273086905479431152e-01 -1.955965161323547363e-02
-4.660437703132629395e-01 7.634872794151306152e-01 -7.322877645492553711e-03
-4.638875126838684082e-01 7.991811633110046387e-01 -4.418246448040008545e-03
-4.626451730728149414e-01 8.272168636322021484e-01 -1.089632511138916016e-02
-4.634006023406982422e-01 8.378729820251464844e-01 -1.455385982990264893e-02
-4.187654256820678711e-01 8.242416977882385254e-01 -1.361222118139266968e-01
-4.348117709159851074e-01 8.009657263755798340e-01 -9.557721018791198730e-02
-4.445282816886901855e-01 7.701494097709655762e-01 -6.668993085622787476e-02
-4.608942270278930664e-01 7.422099113464355469e-01 -3.823804110288619995e-02
-4.654392600059509277e-01 7.377495765686035156e-01 1.185588538646697998e-03
-4.627512991428375244e-01 7.706433534622192383e-01 1.324257254600524902e-02
-4.614753425121307373e-01 8.064786195755004883e-01 1.797103881835937500e-02
-4.627810716629028320e-01 8.297878503799438477e-01 1.598389446735382080e-02
-4.219224154949188232e-01 5.902020335197448730e-01 2.509778738021850586e-01
-4.259082674980163574e-01 6.116198301315307617e-01 2.418072521686553955e-01
-4.282070100307464600e-01 6.325989365577697754e-01 2.364259660243988037e-01
-4.302252531051635742e-01 6.483294963836669922e-01 2.338133156299591064e-01
-4.319992065429687500e-01 6.651465892791748047e-01 2.336084395647048950e-01
-4.340519309043884277e-01 6.853218674659729004e-01 2.334192395210266113e-01
-4.367928504943847656e-01 7.132846713066101074e-01 2.307740747928619385e-01
-4.408383369445800781e-01 7.510707378387451172e-01 2.266747355461120605e-01
-4.335614740848541260e-01 5.833724141120910645e-01 2.264564037322998047e-01
-4.366767704486846924e-01 6.014456152915954590e-01 2.176043689250946045e-01
-4.395836293697357178e-01 6.222987174987792969e-01 2.068727910518646240e-01
-4.424677789211273193e-01 6.383125185966491699e-01 1.997419446706771851e-01
-4.446249604225158691e-01 6.543201804161071777e-01 1.967268735170364380e-01
-4.468915462493896484e-01 6.759199500083923340e-01 1.981600970029830933e-01
-4.478175342082977295e-01 7.080261707305908203e-01 1.983650326728820801e-01
-4.470519125461578369e-01 7.511561512947082520e-01 1.956057548522949219e-01
-4.419202208518981934e-01 5.774632096290588379e-01 2.062141448259353638e-01
-4.455303251743316650e-01 5.950638651847839355e-01 1.948164999485015869e-01
-4.488572776317596436e-01 6.123067140579223633e-01 1.841188967227935791e-01
-4.508022964000701904e-01 6.298514604568481445e-01 1.772197484970092773e-01
-4.516673386096954346e-01 6.455578804016113281e-01 1.732189655303955078e-01
-4.527564346790313721e-01 6.638498902320861816e-01 1.696453541517257690e-01
-4.532945752143859863e-01 6.966638565063476562e-01 1.698494106531143188e-01
-4.522801339626312256e-01 7.434650659561157227e-01 1.693021506071090698e-01
-4.498568177223205566e-01 5.707277655601501465e-01 1.861803084611892700e-01
-4.514447748661041260e-01 5.901365876197814941e-01 1.768890619277954102e-01
-4.538030326366424561e-01 6.052786111831665039e-01 1.653846502304077148e-01
-4.550166130065917969e-01 6.215973496437072754e-01 1.563471108675003052e-01
-4.557118415832519531e-01 6.397990584373474121e-01 1.493765860795974731e-01
-4.565628767013549805e-01 6.559707522392272949e-01 1.446547955274581909e-01
-4.574442803859710693e-01 6.864438056945800781e-01 1.378145366907119751e-01
-4.563652873039245605e-01 7.337560653686523438e-01 1.383369714021682739e-01
-4.537335336208343506e-01 5.573890805244445801e-01 1.633996963500976562e-01
-4.553901851177215576e-01 5.818291902542114258e-01 1.553236097097396851e-01
-4.572155773639678955e-01 5.985132455825805664e-01 1.459108889102935791e-01
-4.585383832454681396e-01 6.117910146713256836e-01 1.377573162317276001e-01
-4.593459963798522949e-01 6.286401748657226562e-01 1.296768635511398315e-01
-4.599351286888122559e-01 6.469538211822509766e-01 1.237823590636253357e-01
-4.603815078735351562e-01 6.733151078224182129e-01 1.193555742502212524e-01
-4.602636694908142090e-01 7.132877111434936523e-01 1.154288649559020996e-01
-4.576709270477294922e-01 5.388621687889099121e-01 1.401828378438949585e-01
-4.592641592025756836e-01 5.692588686943054199e-01 1.331913322210311890e-01
-4.607350826263427734e-01 5.897235274314880371e-01 1.263180971145629883e-01
-4.617716073989868164e-01 6.020953655242919922e-01 1.217436492443084717e-01
-4.625973403453826904e-01 6.161571145057678223e-01 1.151518523693084717e-01
-4.626753330230712891e-01 6.337162256240844727e-01 1.072081774473190308e-01
-4.624550342559814453e-01 6.576320528984069824e-01 1.029881387948989868e-01
-4.628930389881134033e-01 6.944668889045715332e-01 9.718127548694610596e-02
-4.604724943637847900e-01 5.286267399787902832e-01 1.161065995693206787e-01
-4.629306197166442871e-01 5.504415631294250488e-01 1.154887527227401733e-01
-4.642331600189208984e-01 5.765857696533203125e-01 1.092004776000976562e-01
-4.646343886852264404e-01 5.921871662139892578e-01 1.038359850645065308e-01
-4.647875428199768066e-01 6.033484935760498047e-01 1.003803387284278870e-01
-4.645712375640869141e-01 6.191875338554382324e-01 9.717333316802978516e-02
-4.643752872943878174e-01 6.426750421524047852e-01 8.882509171962738037e-02
-4.647330045700073242e-01 6.752564311027526855e-01 7.878933101892471313e-02
-4.631314873695373535e-01 5.310303568840026855e-01 7.500921189785003662e-02
-4.663577973842620850e-01 5.373737215995788574e-01 9.249424934387207031e-02
-4.668656885623931885e-01 5.597807168960571289e-01 8.845347166061401367e-02
-4.666326344013214111e-01 5.815480351448059082e-01 8.531635999679565430e-02
-4.663138687610626221e-01 5.967494249343872070e-01 8.357851207256317139e-02
-4.660365879535675049e-01 6.107683777809143066e-01 8.071882277727127075e-02
-4.656540751457214355e-01 6.324527859687805176e-01 7.433559000492095947e-02
-4.659492075443267822e-01 6.595017313957214355e-01 6.277291476726531982e-02
4.563519358634948730e-01 4.124919474124908447e-01 -5.095494538545608521e-02
4.560098946094512939e-01 4.512589573860168457e-01 -5.328909307718276978e-02
4.558045864105224609e-01 4.860884845256805420e-01 -5.507770925760269165e-02
4.556951224803924561e-01 5.209189057350158691e-01 -5.690758675336837769e-02
4.548287689685821533e-01 5.692902803421020508e-01 -6.298650801181793213e-02
4.535194039344787598e-01 6.081607341766357422e-01 -6.380598247051239014e-02
4.501259028911590576e-01 6.380423307418823242e-01 -6.323059648275375366e-02
4.467212259769439697e-01 6.703957319259643555e-01 -5.325011163949966431e-02
4.500095248222351074e-01 3.955140411853790283e-01 -7.227028906345367432e-02
4.479578733444213867e-01 4.384549856185913086e-01 -7.565794140100479126e-02
4.462787508964538574e-01 4.740912616252899170e-01 -8.072207868099212646e-02
4.456562995910644531e-01 5.083431601524353027e-01 -8.394999802112579346e-02
4.445724785327911377e-01 5.485369563102722168e-01 -8.878651261329650879e-02
4.434773921966552734e-01 5.910352468490600586e-01 -9.660519659519195557e-02
4.411701261997222900e-01 6.287623047828674316e-01 -1.012428998947143555e-01
4.383110702037811279e-01 6.685718297958374023e-01 -1.058667302131652832e-01
4.430113732814788818e-01 3.774898052215576172e-01 -9.218971431255340576e-02
4.407654106616973877e-01 4.211967587471008301e-01 -9.814201295375823975e-02
4.399239122867584229e-01 4.575441777706146240e-01 -1.025045290589332581e-01
4.388950765132904053e-01 4.907933175563812256e-01 -1.072553768754005432e-01
4.373547732830047607e-01 5.247961282730102539e-01 -1.126030534505844116e-01
4.357646405696868896e-01 5.711455941200256348e-01 -1.191245242953300476e-01
4.330904483795166016e-01 6.164057850837707520e-01 -1.242714226245880127e-01
4.276193678379058838e-01 6.570541262626647949e-01 -1.279913485050201416e-01
