1.212118417024612427e-01 -2.008980512619018555e-01 4.694395363330841064e-01
1.193409413099288940e-01 -1.969451606273651123e-01 4.698657393455505371e-01
1.149556189775466919e-01 -1.905412971973419189e-01 4.706568717956542969e-01
1.425905525684356689e-01 -2.142801284790039062e-01 4.634079933166503906e-01
1.344626098871231079e-01 -2.109464108943939209e-01 4.660157561302185059e-01
1.289542764425277710e-01 -2.080068588256835938e-01 4.679814279079437256e-01
1.226436793804168701e-01 -2.064332813024520874e-01 4.687407612800598145e-01
1.174170970916748047e-01 -2.049901187419891357e-01 4.691963195800781250e-01
1.172813177108764648e-01 -2.030283212661743164e-01 4.694035649299621582e-01
1.161139309406280518e-01 -1.989211589097976685e-01 4.698629677295684814e-01
1.113611608743667603e-01 -1.935030221939086914e-01 4.705442190170288086e-01
1.417826563119888306e-01 -2.191552221775054932e-01 4.633259773254394531e-01
1.339817643165588379e-01 -2.133681476116180420e-01 4.656124413013458252e-01
1.285807639360427856e-01 -2.100670933723449707e-01 4.676585197448730469e-01
1.215129792690277100e-01 -2.070107161998748779e-01 4.686743319034576416e-01
1.157353967428207397e-01 -2.055266052484512329e-01 4.691697359085083008e-01
1.152675747871398926e-01 -2.039257287979125977e-01 4.693792462348937988e-01
1.136620193719863892e-01 -1.999715566635131836e-01 4.698421061038970947e-01
1.089483648538589478e-01 -1.949364244937896729e-01 4.704776406288146973e-01
1.400772184133529663e-01 -2.275805920362472534e-01 4.629898667335510254e-01
1.326413750648498535e-01 -2.173347324132919312e-01 4.652258157730102539e-01
1.258029341697692871e-01 -2.127237766981124878e-01 4.673245847225189209e-01
1.189950406551361084e-01 -2.093701511621475220e-01 4.683416485786437988e-01
1.139153093099594116e-01 -2.064886987209320068e-01 4.690635800361633301e-01
1.132149547338485718e-01 -2.044895440340042114e-01 4.693924784660339355e-01
1.122705787420272827e-01 -2.005219757556915283e-01 4.698290824890136719e-01
1.066563576459884644e-01 -1.950207948684692383e-01 4.705284833908081055e-01
1.360889077186584473e-01 -2.404421418905258179e-01 4.629171788692474365e-01
1.281343847513198853e-01 -2.253992855548858643e-01 4.653345346450805664e-01
1.194920688867568970e-01 -2.176506668329238892e-01 4.666923284530639648e-01
1.141112744808197021e-01 -2.127693295478820801e-01 4.679043591022491455e-01
1.104261577129364014e-01 -2.093644142150878906e-01 4.686850011348724365e-01
1.091741770505905151e-01 -2.060009837150573730e-01 4.693564474582672119e-01
1.081657409667968750e-01 -2.018240541219711304e-01 4.698029160499572754e-01
1.025554388761520386e-01 -1.959724128246307373e-01 4.705358743667602539e-01
1.255169063806533813e-01 -2.529163658618927002e-01 4.629397988319396973e-01
1.174129843711853027e-01 -2.348159998655319214e-01 4.647730886936187744e-01
1.103699654340744019e-01 -2.243724316358566284e-01 4.664297103881835938e-01
1.052423864603042603e-01 -2.181583493947982788e-01 4.672478437423706055e-01
1.012641340494155884e-01 -2.135012894868850708e-01 4.682573974132537842e-01
1.000694930553436279e-01 -2.088141739368438721e-01 4.691391587257385254e-01
9.984001517295837402e-02 -2.037753611803054810e-01 4.697981774806976318e-01
9.575985372066497803e-02 -1.975999176502227783e-01 4.705396294593811035e-01
4.934228956699371338e-01 -9.715925157070159912e-02 -5.690301209688186646e-02
4.942950606346130371e-01 -8.606901019811630249e-02 -6.374678015708923340e-02
4.952038228511810303e-01 -7.616590708494186401e-02 -7.108819484710693359e-02
4.957053065299987793e-01 -6.543318927288055420e-02 -7.920995354652404785e-02
4.963659346103668213e-01 -5.026882514357566833e-02 -8.892390877008438110e-02
4.972916543483734131e-01 -3.430486097931861877e-02 -9.626561403274536133e-02
4.971950650215148926e-01 -1.387199759483337402e-02 -1.025776714086532593e-01
4.991627931594848633e-01 5.260050296783447266e-03 -9.790990501642227173e-02
4.920102953910827637e-01 -1.064602360129356384e-01 -7.164917886257171631e-02
4.929818511009216309e-01 -9.101115167140960693e-02 -7.889899611473083496e-02
4.935729503631591797e-01 -8.257392048835754395e-02 -8.772587031126022339e-02
4.941156208515167236e-01 -7.434228062629699707e-02 -9.687884151935577393e-02
4.940786063671112061e-01 -5.929223820567131042e-02 -1.046139448881149292e-01
4.945504069328308105e-01 -4.454841837286949158e-02 -1.130289435386657715e-01
4.947033524513244629e-01 -2.360178530216217041e-02 -1.188585311174392700e-01
4.944626390933990479e-01 -1.338556408882141113e-03 -1.213170439004898071e-01
4.913807213306427002e-01 -1.158011704683303833e-01 -8.179035037755966187e-02
4.923443794250488281e-01 -1.003223061561584473e-01 -8.933139592409133911e-02
4.926894605159759521e-01 -8.859133720397949219e-02 -9.629139304161071777e-02
4.927048683166503906e-01 -8.048683404922485352e-02 -1.039055436849594116e-01
4.927961826324462891e-01 -6.989354640245437622e-02 -1.108997464179992676e-01
4.930998086929321289e-01 -5.400212481617927551e-02 -1.186749339103698730e-01
4.925406873226165771e-01 -3.207811713218688965e-02 -1.271149665117263794e-01
4.913833737373352051e-01 -9.163096547126770020e-03 -1.321247965097427368e-01
4.906471669673919678e-01 -1.228789538145065308e-01 -9.079317003488540649e-02
4.906539916992187500e-01 -1.098033785820007324e-01 -9.816009551286697388e-02
4.911969900131225586e-01 -9.708691388368606567e-02 -1.043884307146072388e-01
4.918826520442962646e-01 -8.556222915649414062e-02 -1.103954762220382690e-01
4.920117259025573730e-01 -7.668208330869674683e-02 -1.169045120477676392e-01
4.917287826538085938e-01 -6.168525293469429016e-02 -1.227265670895576477e-01
4.901656508445739746e-01 -4.020202532410621643e-02 -1.328938603401184082e-01
4.889153540134429932e-01 -1.687261462211608887e-02 -1.408652812242507935e-01
4.889099597930908203e-01 -1.295649856328964233e-01 -9.853007644414901733e-02
4.893523454666137695e-01 -1.158337146043777466e-01 -1.070418953895568848e-01
4.898206889629364014e-01 -1.032638177275657654e-01 -1.135982275009155273e-01
4.901756048202514648e-01 -9.249332547187805176e-02 -1.185104697942733765e-01
4.901830255985260010e-01 -8.225857466459274292e-02 -1.229176819324493408e-01
4.892156720161437988e-01 -7.005509734153747559e-02 -1.289499700069427490e-01
4.877675771713256836e-01 -4.742946848273277283e-02 -1.380237191915512085e-01
4.868804812431335449e-01 -2.458654344081878662e-02 -1.456820070743560791e-01
4.855605065822601318e-01 -1.408223509788513184e-01 -1.092321127653121948e-01
4.863423705101013184e-01 -1.218925714492797852e-01 -1.170228943228721619e-01
4.871998131275177002e-01 -1.066766977310180664e-01 -1.232688575983047485e-01
4.868701696395874023e-01 -9.571371972560882568e-02 -1.287663280963897705e-01
4.870465993881225586e-01 -8.689902722835540771e-02 -1.316281557083129883e-01
4.861783087253570557e-01 -7.779391109943389893e-02 -1.362218558788299561e-01
4.850673675537109375e-01 -5.641790851950645447e-02 -1.439627408981323242e-01
4.841121435165405273e-01 -3.218032419681549072e-02 -1.514416784048080444e-01
4.780233502388000488e-01 -1.568470150232315063e-01 -1.245370954275131226e-01
4.797078371047973633e-01 -1.286877840757369995e-01 -1.308891773223876953e-01
4.806835651397705078e-01 -1.117109432816505432e-01 -1.380569636821746826e-01
4.816251397132873535e-01 -9.919545799493789673e-02 -1.418501734733581543e-01
4.827649295330047607e-01 -8.968038856983184814e-02 -1.432159394025802612e-01
4.826610684394836426e-01 -8.093500137329101562e-02 -1.459417343139648438e-01
4.814653098583221436e-01 -6.070173159241676331e-02 -1.529242992401123047e-01
4.801120758056640625e-01 -3.655893728137016296e-02 -1.605863869190216064e-01
4.649871885776519775e-01 -1.855139881372451782e-01 -1.500994116067886353e-01
4.695654511451721191e-01 -1.394170671701431274e-01 -1.487239599227905273e-01
4.711449146270751953e-01 -1.178766414523124695e-01 -1.536014527082443237e-01
4.738231599330902100e-01 -1.028359681367874146e-01 -1.566122472286224365e-01
4.759519100189208984e-01 -9.441223740577697754e-02 -1.575187444686889648e-01
4.772281646728515625e-01 -8.523020893335342407e-02 -1.594954431056976318e-01
4.763457477092742920e-01 -6.399503350257873535e-02 -1.652362197637557983e-01
4.733721315860748291e-01 -3.627483174204826355e-02 -1.740511655807495117e-01
2.496095746755599976e-01 -5.318353176116943359e-01 -1.825916022062301636e-01
2.365196794271469116e-01 -4.569527208805084229e-01 -2.964050769805908203e-01
2.154897302389144897e-01 -4.398344457149505615e-01 -3.033557534217834473e-01
1.943328976631164551e-01 -4.407396912574768066e-01 -2.678611874580383301e-01
1.770560890436172485e-01 -4.411204755306243896e-01 -2.423099875450134277e-01
1.587289571762084961e-01 -4.421918094158172607e-01 -2.189173400402069092e-01
1.337492763996124268e-01 -4.436528384685516357e-01 -1.942009180784225464e-01
9.399463236331939697e-02 -4.445679187774658203e-01 -1.640297621488571167e-01
2.350412905216217041e-01 -5.298302173614501953e-01 -2.705990970134735107e-01
2.037531286478042603e-01 -5.195508003234863281e-01 -2.106700539588928223e-01
1.981846690177917480e-01 -4.469487071037292480e-01 -3.398349881172180176e-01
1.701873689889907837e-01 -4.373486340045928955e-01 -3.219718039035797119e-01
1.490105092525482178e-01 -4.388596415519714355e-01 -2.817115783691406250e-01
1.232723817229270935e-01 -4.401410818099975586e-01 -2.535424828529357910e-01
8.893704414367675781e-02 -4.422188401222229004e-01 -2.273524701595306396e-01
4.364079236984252930e-02 -4.432630538940429688e-01 -1.962474733591079712e-01
2.213671654462814331e-01 -5.212523341178894043e-01 -3.208269774913787842e-01
1.812015324831008911e-01 -5.318685770034790039e-01 -2.707495689392089844e-01
1.598440259695053101e-01 -4.966678917407989502e-01 -2.644053995609283447e-01
1.439200639724731445e-01 -4.397975802421569824e-01 -3.649296760559082031e-01
1.226828321814537048e-01 -4.359352886676788330e-01 -3.270040452480316162e-01
9.115152806043624878e-02 -4.390611946582794189e-01 -2.789110541343688965e-01
5.578048154711723328e-02 -4.406826198101043701e-01 -2.507423758506774902e-01
7.799759507179260254e-03 -4.415577352046966553e-01 -2.187932282686233521e-01
2.035524696111679077e-01 -5.177850127220153809e-01 -3.659490942955017090e-01
1.566232144832611084e-01 -5.285329222679138184e-01 -3.340000808238983154e-01
1.248972490429878235e-01 -5.326181650161743164e-01 -2.727448344230651855e-01
1.079254299402236938e-01 -4.665228426456451416e-01 -3.286718130111694336e-01
8.909150958061218262e-02 -4.365516901016235352e-01 -3.758710622787475586e-01
5.685216560959815979e-02 -4.375916123390197754e-01 -3.176832199096679688e-01
1.783382892608642578e-02 -4.390049576759338379e-01 -2.732758224010467529e-01
-2.745886147022247314e-02 -4.397214353084564209e-01 -2.396841943264007568e-01
1.721747815608978271e-01 -5.156757235527038574e-01 -3.997908830642700195e-01
1.203771457076072693e-01 -5.200648903846740723e-01 -3.755167722702026367e-01
8.866229653358459473e-02 -5.324020981788635254e-01 -3.335748314857482910e-01
5.995536968111991882e-02 -5.284216403961181641e-01 -2.731126546859741211e-01
4.733745008707046509e-02 -4.488022923469543457e-01 -3.616029024124145508e-01
1.157949864864349365e-02 -4.358327090740203857e-01 -3.583451807498931885e-01
-2.775625884532928467e-02 -4.372965097427368164e-01 -3.034918904304504395e-01
-7.056221365928649902e-02 -4.377250671386718750e-01 -2.574114203453063965e-01
1.216909289360046387e-01 -5.005792379379272461e-01 -4.174867272377014160e-01
7.178416103124618530e-02 -5.112258791923522949e-01 -3.854369223117828369e-01
3.705707937479019165e-02 -5.249714255332946777e-01 -3.630534708499908447e-01
1.328149437904357910e-02 -5.369508266448974609e-01 -3.005824387073516846e-01
-8.452072739601135254e-03 -4.968504905700683594e-01 -2.906304895877838135e-01
-3.979805111885070801e-02 -4.369862675666809082e-01 -3.773758411407470703e-01
-8.187171816825866699e-02 -4.328581690788269043e-01 -3.379542231559753418e-01
-1.285894513130187988e-01 -4.358049333095550537e-01 -2.826306521892547607e-01
6.389473378658294678e-02 -4.821974635124206543e-01 -4.338823556900024414e-01
1.536053419113159180e-02 -4.947325587272644043e-01 -4.023223519325256348e-01
-1.526227593421936035e-02 -5.091486573219299316e-01 -3.682874441146850586e-01
-4.715313017368316650e-02 -5.311691164970397949e-01 -3.374642729759216309e-01
-7.910445332527160645e-02 -5.329503417015075684e-01 -2.700420618057250977e-01
-1.005757004022598267e-01 -4.555381238460540771e-01 -3.238074183464050293e-01
-1.481598317623138428e-01 -4.307480454444885254e-01 -3.676183521747589111e-01
-1.950061768293380737e-01 -4.358319044113159180e-01 -3.063514828681945801e-01
4.343196749687194824e-03 -4.617869853973388672e-01 -4.598774909973144531e-01
-5.227203667163848877e-02 -4.759275615215301514e-01 -4.195045232772827148e-01
-8.670310676097869873e-02 -4.902587831020355225e-01 -3.769714832305908203e-01
-1.219968348741531372e-01 -5.048058032989501953e-01 -3.509507179260253906e-01
-1.455858349800109863e-01 -5.200185775756835938e-01 -3.146242499351501465e-01
-1.799686402082443237e-01 -5.105915069580078125e-01 -2.620609700679779053e-01
-2.222500592470169067e-01 -4.447465837001800537e-01 -3.467467129230499268e-01
-2.713958621025085449e-01 -4.362968802452087402e-01 -3.357532322406768799e-01
-5.516937971115112305e-01 5.090091824531555176e-01 1.093499064445495605e-01
-5.500205755233764648e-01 5.118426084518432617e-01 1.145416200160980225e-01
-5.495483875274658203e-01 5.139140486717224121e-01 1.140404045581817627e-01
-5.512300729751586914e-01 5.163578391075134277e-01 1.156592965126037598e-01
-5.524401068687438965e-01 5.180999040603637695e-01 1.164838671684265137e-01
-5.521275401115417480e-01 5.200536251068115234e-01 1.206057071685791016e-01
-5.499951839447021484e-01 5.235887765884399414e-01 1.270860433578491211e-01
-5.485152006149291992e-01 5.269224047660827637e-01 1.414906084537506104e-01
-5.514441132545471191e-01 5.092188715934753418e-01 8.573071658611297607e-02
-5.510210394859313965e-01 5.133288502693176270e-01 9.644372761249542236e-02
-5.518113374710083008e-01 5.152118206024169922e-01 1.000740975141525269e-01
-5.531427264213562012e-01 5.174838304519653320e-01 1.007261276245117188e-01
-5.529754161834716797e-01 5.194251537322998047e-01 1.030129492282867432e-01
-5.527137517929077148e-01 5.215663909912109375e-01 1.069185733795166016e-01
-5.506004095077514648e-01 5.253103971481323242e-01 1.128375828266143799e-01
-5.494728088378906250e-01 5.293735265731811523e-01 1.234543323516845703e-01
-5.503739714622497559e-01 5.049651861190795898e-01 6.635724008083343506e-02
-5.517737269401550293e-01 5.138286352157592773e-01 7.966977357864379883e-02
-5.531380176544189453e-01 5.160960555076599121e-01 8.754627406597137451e-02
-5.539694428443908691e-01 5.178217887878417969e-01 8.991633355617523193e-02
-5.538794994354248047e-01 5.199046730995178223e-01 9.276048839092254639e-02
-5.534230470657348633e-01 5.223285555839538574e-01 9.707035124301910400e-02
-5.514158606529235840e-01 5.255641937255859375e-01 1.032542288303375244e-01
-5.494835972785949707e-01 5.323539972305297852e-01 1.139458715915679932e-01
-5.502204298973083496e-01 4.885444045066833496e-01 4.435417056083679199e-02
-5.518048405647277832e-01 5.122397541999816895e-01 5.904042720794677734e-02
-5.526086091995239258e-01 5.165106654167175293e-01 7.155604660511016846e-02
-5.540394186973571777e-01 5.183416604995727539e-01 7.761444151401519775e-02
-5.542118549346923828e-01 5.203461647033691406e-01 8.161330223083496094e-02
-5.539559125900268555e-01 5.226478576660156250e-01 8.687733113765716553e-02
-5.522627234458923340e-01 5.263136029243469238e-01 9.525872766971588135e-02
-5.495926737785339355e-01 5.352549552917480469e-01 1.057963967323303223e-01
-5.467993021011352539e-01 4.587912261486053467e-01 1.041689515113830566e-02
-5.501476526260375977e-01 5.051063895225524902e-01 3.298582136631011963e-02
-5.511422157287597656e-01 5.154750347137451172e-01 5.063928663730621338e-02
-5.528311133384704590e-01 5.188956260681152344e-01 6.260441243648529053e-02
-5.529957413673400879e-01 5.211429595947265625e-01 7.063280045986175537e-02
-5.532776713371276855e-01 5.232803821563720703e-01 7.735586166381835938e-02
-5.521361827850341797e-01 5.271927118301391602e-01 8.644773066043853760e-02
-5.493652224540710449e-01 5.386258363723754883e-01 9.731645882129669189e-02
-5.429364442825317383e-01 4.203379750251770020e-01 -9.289056062698364258e-03
-5.473322868347167969e-01 4.781327843666076660e-01 -6.476119160652160645e-03
-5.496485233306884766e-01 5.081895589828491211e-01 1.694349944591522217e-02
-5.513576865196228027e-01 5.182738900184631348e-01 3.554759919643402100e-02
-5.516703724861145020e-01 5.217701792716979980e-01 5.102102458477020264e-02
-5.516343116760253906e-01 5.248970985412597656e-01 6.194837391376495361e-02
-5.507376194000244141e-01 5.291737318038940430e-01 7.158167660236358643e-02
-5.492590069770812988e-01 5.418685674667358398e-01 8.459547162055969238e-02
-5.400564670562744141e-01 3.700068891048431396e-01 -3.635909408330917358e-02
-5.421479344367980957e-01 4.359428882598876953e-01 -3.243864327669143677e-02
-5.463135838508605957e-01 4.836820363998413086e-01 -3.725197166204452515e-02
-5.483587980270385742e-01 5.068531036376953125e-01 -1.415877044200897217e-02
-5.503972768783569336e-01 5.193689465522766113e-01 1.301321387290954590e-02
-5.500296354293823242e-01 5.279806852340698242e-01 3.313040733337402344e-02
-5.493350028991699219e-01 5.361669063568115234e-01 5.089837312698364258e-02
-5.492227673530578613e-01 5.458370447158813477e-01 6.913530826568603516e-02
-5.302996635437011719e-01 3.966476619243621826e-01 -1.129644811153411865e-01
-5.444310307502746582e-01 4.024156033992767334e-01 -5.988713353872299194e-02
-5.433339476585388184e-01 4.532019197940826416e-01 -6.412452459335327148e-02
-5.432640910148620605e-01 4.884101748466491699e-01 -7.609695196151733398e-02
-5.431271791458129883e-01 5.100549459457397461e-01 -5.736798793077468872e-02
-5.456551909446716309e-01 5.265265703201293945e-01 -2.503047138452529907e-02
-5.464867353439331055e-01 5.444922447204589844e-01 2.726659178733825684e-03
-5.482252836227416992e-01 5.552105903625488281e-01 3.036545217037200928e-02
-5.018801093101501465e-01 3.685786128044128418e-01 2.270328402519226074e-01
-5.114257931709289551e-01 3.852836787700653076e-01 2.251419723033905029e-01
-5.144891142845153809e-01 4.026696681976318359e-01 2.243765294551849365e-01
-5.160654187202453613e-01 4.108436107635498047e-01 2.215552181005477905e-01
-5.166918039321899414e-01 4.211995005607604980e-01 2.194721698760986328e-01
-5.156843662261962891e-01 4.304348230361938477e-01 2.206323444843292236e-01
-5.151790380477905273e-01 4.354128241539001465e-01 2.232453227043151855e-01
-5.161666274070739746e-01 4.420802891254425049e-01 2.305302768945693970e-01
-5.182757973670959473e-01 3.472315371036529541e-01 2.033677399158477783e-01
-5.224644541740417480e-01 3.757094740867614746e-01 2.015146166086196899e-01
-5.256006717681884766e-01 3.920223414897918701e-01 1.990093439817428589e-01
-5.271455049514770508e-01 4.040323495864868164e-01 1.983547061681747437e-01
-5.285185575485229492e-01 4.140498042106628418e-01 1.962945312261581421e-01
-5.281447768211364746e-01 4.261928200721740723e-01 1.949482560157775879e-01
-5.268236398696899414e-01 4.360818862915039062e-01 1.941235363483428955e-01
-5.255162715911865234e-01 4.450521469116210938e-01 2.014472633600234985e-01
-5.260314941406250000e-01 3.296471536159515381e-01 1.868092417716979980e-01
-5.303266048431396484e-01 3.613008260726928711e-01 1.798925846815109253e-01
-5.313361287117004395e-01 3.822890520095825195e-01 1.760741174221038818e-01
-5.322736501693725586e-01 3.954692482948303223e-01 1.744455397129058838e-01
-5.324153900146484375e-01 4.086309075355529785e-01 1.753849387168884277e-01
-5.319419503211975098e-01 4.213356971740722656e-01 1.745322346687316895e-01
-5.311896800994873047e-01 4.331703186035156250e-01 1.749922782182693481e-01
-5.311856269836425781e-01 4.472460746765136719e-01 1.732052415609359741e-01
-5.311487317085266113e-01 3.016046285629272461e-01 1.666464656591415405e-01
-5.325080156326293945e-01 3.454447984695434570e-01 1.617681682109832764e-01
-5.332320928573608398e-01 3.703501224517822266e-01 1.598663628101348877e-01
-5.341210365295410156e-01 3.886535763740539551e-01 1.573231965303421021e-01
-5.348631143569946289e-01 4.035583734512329102e-01 1.548037379980087280e-01
-5.341597199440002441e-01 4.165663719177246094e-01 1.560873389244079590e-01
-5.338134765625000000e-01 4.288893043994903564e-01 1.594047546386718750e-01
-5.344404578208923340e-01 4.462060928344726562e-01 1.579482704401016235e-01
-5.328759551048278809e-01 2.760364115238189697e-01 1.494594067335128784e-01
-5.344021320343017578e-01 3.215213418006896973e-01 1.471868604421615601e-01
-5.352901220321655273e-01 3.557266592979431152e-01 1.419625133275985718e-01
-5.351542830467224121e-01 3.780623078346252441e-01 1.376429796218872070e-01
-5.355929732322692871e-01 3.960758745670318604e-01 1.339915692806243896e-01
-5.360533595085144043e-01 4.111384153366088867e-01 1.311194151639938354e-01
-5.357513427734375000e-01 4.261282086372375488e-01 1.342904269695281982e-01
-5.358595848083496094e-01 4.452356100082397461e-01 1.349477618932723999e-01
-5.347679257392883301e-01 2.465874254703521729e-01 1.259398311376571655e-01
-5.355958938598632812e-01 2.971875667572021484e-01 1.227892041206359863e-01
-5.369614362716674805e-01 3.356487154960632324e-01 1.180759742856025696e-01
-5.373648405075073242e-01 3.650683462619781494e-01 1.085688844323158264e-01
-5.370852947235107422e-01 3.856285810470581055e-01 1.075812131166458130e-01
-5.371776223182678223e-01 4.056886136531829834e-01 1.038947105407714844e-01
-5.365829467773437500e-01 4.259858727455139160e-01 1.032192036509513855e-01
-5.364199876785278320e-01 4.435884654521942139e-01 1.083707883954048157e-01
-5.368050932884216309e-01 2.138050049543380737e-01 7.181710004806518555e-02
-5.379863381385803223e-01 2.712022662162780762e-01 9.247424453496932983e-02
-5.395228266716003418e-01 3.163723051548004150e-01 8.236648142337799072e-02
-5.402852892875671387e-01 3.478015065193176270e-01 7.653677463531494141e-02
-5.392287373542785645e-01 3.750185072422027588e-01 7.308299094438552856e-02
-5.388045310974121094e-01 4.000675082206726074e-01 7.556731998920440674e-02
-5.383751988410949707e-01 4.259342551231384277e-01 7.318095862865447998e-02
-5.386920571327209473e-01 4.442849755287170410e-01 7.436955720186233521e-02
-5.436319708824157715e-01 2.446915507316589355e-01 -4.282243549823760986e-03
-5.424673557281494141e-01 2.518017590045928955e-01 3.827048093080520630e-02
-5.448566675186157227e-01 3.016795217990875244e-01 4.510360956192016602e-02
-5.443567633628845215e-01 3.384649157524108887e-01 3.959860652685165405e-02
-5.435832142829895020e-01 3.624379634857177734e-01 3.827274590730667114e-02
-5.430215597152709961e-01 3.905873298645019531e-01 3.468661755323410034e-02
-5.432299971580505371e-01 4.189727902412414551e-01 3.644011914730072021e-02
-5.421199202537536621e-01 4.459390044212341309e-01 3.203415125608444214e-02
5.380175709724426270e-01 2.677367925643920898e-01 -9.988282620906829834e-02
5.365427136421203613e-01 2.770169675350189209e-01 -1.050228625535964966e-01
5.352729558944702148e-01 2.822878062725067139e-01 -1.099392846226692200e-01
5.343362689018249512e-01 2.850252687931060791e-01 -1.148880794644355774e-01
5.342988371849060059e-01 2.874037325382232666e-01 -1.169542744755744934e-01
5.343303680419921875e-01 2.911206483840942383e-01 -1.183000579476356506e-01
5.328754186630249023e-01 2.978707551956176758e-01 -1.200195178389549255e-01
5.286154747009277344e-01 3.085967600345611572e-01 -1.234766393899917603e-01
5.352805852890014648e-01 2.628156840801239014e-01 -1.054158657789230347e-01
5.336764454841613770e-01 2.697578966617584229e-01 -1.109235659241676331e-01
5.325458049774169922e-01 2.769283652305603027e-01 -1.170481219887733459e-01
5.315231680870056152e-01 2.796095013618469238e-01 -1.221755519509315491e-01
5.315330028533935547e-01 2.816343009471893311e-01 -1.242082566022872925e-01
5.316231846809387207e-01 2.848741412162780762e-01 -1.252337694168090820e-01
5.299378037452697754e-01 2.942804694175720215e-01 -1.276869177818298340e-01
5.269301533699035645e-01 3.079957664012908936e-01 -1.295990347862243652e-01
5.343394279479980469e-01 2.561276853084564209e-01 -1.102365627884864807e-01
5.324085950851440430e-01 2.639015316963195801e-01 -1.156921908259391785e-01
5.310539603233337402e-01 2.717380523681640625e-01 -1.211396083235740662e-01
5.306019783020019531e-01 2.749146819114685059e-01 -1.246172562241554260e-01
5.301684737205505371e-01 2.765694558620452881e-01 -1.267561763525009155e-01
5.299053788185119629e-01 2.802965939044952393e-01 -1.281236708164215088e-01
5.277311801910400391e-01 2.897801399230957031e-01 -1.311499476432800293e-01
5.252628326416015625e-01 3.063343763351440430e-01 -1.345114409923553467e-01
5.330311059951782227e-01 2.482537925243377686e-01 -1.140538826584815979e-01
5.308296680450439453e-01 2.583492696285247803e-01 -1.194326207041740417e-01
5.298045277595520020e-01 2.648181319236755371e-01 -1.234978660941123962e-01
5.297697782516479492e-01 2.702413499355316162e-01 -1.259970664978027344e-01
5.292540192604064941e-01 2.718159258365631104e-01 -1.280712187290191650e-01
5.282494425773620605e-01 2.771707475185394287e-01 -1.303415745496749878e-01
5.262073278427124023e-01 2.860325872898101807e-01 -1.334382593631744385e-01
5.244712829589843750e-01 3.032565712928771973e-01 -1.375909447669982910e-01
5.311775207519531250e-01 2.396951019763946533e-01 -1.175744906067848206e-01
5.289209485054016113e-01 2.539023458957672119e-01 -1.229841113090515137e-01
5.284739136695861816e-01 2.596768140792846680e-01 -1.259924173355102539e-01
5.280566811561584473e-01 2.640824913978576660e-01 -1.281705647706985474e-01
5.274499654769897461e-01 2.696785032749176025e-01 -1.306982338428497314e-01
5.262043476104736328e-01 2.755500078201293945e-01 -1.331173479557037354e-01
5.250487327575683594e-01 2.829952538013458252e-01 -1.353461146354675293e-01
5.236850976943969727e-01 2.996021211147308350e-01 -1.397400200366973877e-01
5.289396643638610840e-01 2.255859076976776123e-01 -1.227143630385398865e-01
5.267291665077209473e-01 2.480344772338867188e-01 -1.281720399856567383e-01
5.258016586303710938e-01 2.554788291454315186e-01 -1.315861642360687256e-01
5.246639847755432129e-01 2.602266669273376465e-01 -1.348086595535278320e-01
5.241034030914306641e-01 2.680252194404602051e-01 -1.370923221111297607e-01
5.243122577667236328e-01 2.753082513809204102e-01 -1.375614106655120850e-01
5.238434076309204102e-01 2.830374836921691895e-01 -1.394749879837036133e-01
5.225108861923217773e-01 2.973895967006683350e-01 -1.431869864463806152e-01
5.244214534759521484e-01 2.071819007396697998e-01 -1.326946616172790527e-01
5.233557224273681641e-01 2.365746498107910156e-01 -1.370428800582885742e-01
5.223556160926818848e-01 2.518047094345092773e-01 -1.411531418561935425e-01
5.219857096672058105e-01 2.590039372444152832e-01 -1.432364583015441895e-01
5.221086740493774414e-01 2.663055062294006348e-01 -1.443572044372558594e-01
5.226113200187683105e-01 2.740383744239807129e-01 -1.441936790943145752e-01
5.219447016716003418e-01 2.848142683506011963e-01 -1.467725634574890137e-01
5.200287103652954102e-01 3.007467985153198242e-01 -1.519193947315216064e-01
5.182734727859497070e-01 1.797636449337005615e-01 -1.467069685459136963e-01
5.174396038055419922e-01 2.172892987728118896e-01 -1.509288698434829712e-01
5.178657174110412598e-01 2.425556182861328125e-01 -1.528872549533843994e-01
5.183441638946533203e-01 2.567728161811828613e-01 -1.546307355165481567e-01
5.185160636901855469e-01 2.656731605529785156e-01 -1.557843983173370361e-01
5.187193155288696289e-01 2.754752635955810547e-01 -1.569237858057022095e-01
5.175558328628540039e-01 2.879278659820556641e-01 -1.592429876327514648e-01
5.147869586944580078e-01 3.068144917488098145e-01 -1.645964086055755615e-01
-5.449071526527404785e-03 5.557995438575744629e-01 5.511693954467773438e-01
-2.892991900444030762e-02 5.579820871353149414e-01 5.507532954216003418e-01
-4.726868122816085815e-02 5.603583455085754395e-01 5.503947734832763672e-01
-5.668934807181358337e-02 5.617143511772155762e-01 5.499402880668640137e-01
-6.017426401376724243e-02 5.628526806831359863e-01 5.497030019760131836e-01
-6.489630043506622314e-02 5.639477968215942383e-01 5.495522618293762207e-01
-7.035759091377258301e-02 5.642147064208984375e-01 5.495693087577819824e-01
-7.684648782014846802e-02 5.644035339355468750e-01 5.490338802337646484e-01
-3.114984929561614990e-02 5.559620857238769531e-01 5.503974556922912598e-01
-5.399006605148315430e-02 5.585661530494689941e-01 5.500552654266357422e-01
-6.740312278270721436e-02 5.604364871978759766e-01 5.493335723876953125e-01
-7.499085366725921631e-02 5.615448951721191406e-01 5.488200187683105469e-01
-7.706373184919357300e-02 5.621051192283630371e-01 5.486950278282165527e-01
-7.922609150409698486e-02 5.633432865142822266e-01 5.486106276512145996e-01
-8.149494230747222900e-02 5.648566484451293945e-01 5.483747124671936035e-01
-8.697795122861862183e-02 5.652123689651489258e-01 5.478259325027465820e-01
-4.874596744775772095e-02 5.565148591995239258e-01 5.501272082328796387e-01
-6.653978675603866577e-02 5.588617324829101562e-01 5.493543744087219238e-01
-7.869528979063034058e-02 5.604134798049926758e-01 5.484502315521240234e-01
-8.455104380846023560e-02 5.612518191337585449e-01 5.479388833045959473e-01
-8.672440797090530396e-02 5.612015128135681152e-01 5.478521585464477539e-01
-8.740884810686111450e-02 5.621794462203979492e-01 5.477538704872131348e-01
-8.870963752269744873e-02 5.637611150741577148e-01 5.475220084190368652e-01
-9.107310324907302856e-02 5.658795237541198730e-01 5.468997359275817871e-01
-5.374796688556671143e-02 5.559154748916625977e-01 5.496580600738525391e-01
-7.179874926805496216e-02 5.592737197875976562e-01 5.489497184753417969e-01
-8.268997073173522949e-02 5.602399706840515137e-01 5.480806827545166016e-01
-8.818471431732177734e-02 5.611320137977600098e-01 5.476938486099243164e-01
-8.908949792385101318e-02 5.609766244888305664e-01 5.476713180541992188e-01
-8.962956070899963379e-02 5.611462593078613281e-01 5.476087927818298340e-01
-9.105598926544189453e-02 5.628944635391235352e-01 5.473220944404602051e-01
-9.331571310758590698e-02 5.658501982688903809e-01 5.465862154960632324e-01
-5.697371438145637512e-02 5.532629489898681641e-01 5.492715239524841309e-01
-7.354238629341125488e-02 5.588693022727966309e-01 5.487639307975769043e-01
-8.495829999446868896e-02 5.598833560943603516e-01 5.479077696800231934e-01
-8.965721726417541504e-02 5.608079433441162109e-01 5.475741028785705566e-01
-8.991322666406631470e-02 5.611987113952636719e-01 5.475875735282897949e-01
-8.988136053085327148e-02 5.613553524017333984e-01 5.476074218750000000e-01
-9.189812839031219482e-02 5.623387098312377930e-01 5.472686290740966797e-01
-9.468391537666320801e-02 5.650382637977600098e-01 5.464747548103332520e-01
-5.769073218107223511e-02 5.473493337631225586e-01 5.495594739913940430e-01
-7.401797175407409668e-02 5.574896335601806641e-01 5.485739707946777344e-01
-8.604139089584350586e-02 5.595593452453613281e-01 5.478119254112243652e-01
-9.094806760549545288e-02 5.608665347099304199e-01 5.473803281784057617e-01
-9.136512875556945801e-02 5.612981319427490234e-01 5.473721027374267578e-01
-9.151399880647659302e-02 5.615747570991516113e-01 5.473832488059997559e-01
-9.253445267677307129e-02 5.624222755432128906e-01 5.472142696380615234e-01
-9.555051475763320923e-02 5.647861957550048828e-01 5.463556647300720215e-01
-6.547675281763076782e-02 5.393874645233154297e-01 5.489665865898132324e-01
-8.214336633682250977e-02 5.528120994567871094e-01 5.477607250213623047e-01
-9.381522983312606812e-02 5.580061674118041992e-01 5.470880866050720215e-01
-9.488459676504135132e-02 5.602033138275146484e-01 5.467638373374938965e-01
-9.554614126682281494e-02 5.613972544670104980e-01 5.466820001602172852e-01
-9.527692198753356934e-02 5.620272159576416016e-01 5.467879772186279297e-01
-9.601004421710968018e-02 5.630421638488769531e-01 5.466057658195495605e-01
-9.803669154644012451e-02 5.652225017547607422e-01 5.458956956863403320e-01
-8.449719101190567017e-02 5.292831063270568848e-01 5.477483272552490234e-01
-1.007394939661026001e-01 5.428715944290161133e-01 5.462015867233276367e-01
-1.101103276014328003e-01 5.549697279930114746e-01 5.447255969047546387e-01
-1.093957573175430298e-01 5.583335161209106445e-01 5.449808835983276367e-01
-1.078253909945487976e-01 5.609232187271118164e-01 5.451212525367736816e-01
-1.063071265816688538e-01 5.620799064636230469e-01 5.452839136123657227e-01
-1.057745218276977539e-01 5.633516311645507812e-01 5.453563928604125977e-01
-1.076717376708984375e-01 5.652880668640136719e-01 5.448243021965026855e-01
-2.937340140342712402e-01 -4.666519761085510254e-01 1.168068125844001770e-01
-3.267650604248046875e-01 -4.147952497005462646e-01 7.878424972295761108e-02
-3.466640710830688477e-01 -3.717974424362182617e-01 3.219398111104965210e-02
-3.650269806385040283e-01 -3.140365779399871826e-01 2.784252166748046875e-03
-3.788710236549377441e-01 -2.558836638927459717e-01 -2.998343855142593384e-02
-4.000670909881591797e-01 -1.982166320085525513e-01 -1.533947885036468506e-02
-4.287806749343872070e-01 -1.723070591688156128e-01 3.918712586164474487e-02
-4.764069914817810059e-01 -1.338058412075042725e-01 9.856820851564407349e-02
-3.129931986331939697e-01 -4.709341526031494141e-01 4.078354686498641968e-02
-3.507646918296813965e-01 -4.620686769485473633e-01 8.410944789648056030e-02
-3.632591962814331055e-01 -4.005521535873413086e-01 3.285699337720870972e-02
-3.799526691436767578e-01 -3.449436426162719727e-01 -1.700632274150848389e-02
-3.945211470127105713e-01 -2.776557505130767822e-01 -4.514466971158981323e-02
-4.139549434185028076e-01 -1.863163113594055176e-01 -8.512453734874725342e-02
-4.440516233444213867e-01 -1.374433636665344238e-01 -4.422449320554733276e-02
-4.873725175857543945e-01 -8.178433775901794434e-02 3.678798675537109375e-03
-3.038260936737060547e-01 -4.584682583808898926e-01 -2.505439519882202148e-02
-3.395370244979858398e-01 -4.704056978225708008e-01 1.396922767162322998e-02
-3.633489012718200684e-01 -4.460439682006835938e-01 3.818877786397933960e-02
-3.761463165283203125e-01 -3.905754983425140381e-01 -1.729306578636169434e-02
-3.897080421447753906e-01 -3.160143196582794189e-01 -6.003638356924057007e-02
-4.122664630413055420e-01 -2.226856201887130737e-01 -1.008064001798629761e-01
-4.377546906471252441e-01 -1.155394762754440308e-01 -1.228959485888481140e-01
-4.792183637619018555e-01 -4.825052618980407715e-02 -7.575535029172897339e-02
-2.957018911838531494e-01 -4.331372380256652832e-01 -8.688157051801681519e-02
-3.317016959190368652e-01 -4.633802771568298340e-01 -5.295832827687263489e-02
-3.561910986900329590e-01 -4.675257205963134766e-01 -6.760366261005401611e-03
-3.728379607200622559e-01 -4.284296333789825439e-01 -1.123501360416412354e-02
-3.824379444122314453e-01 -3.712480962276458740e-01 -6.002537533640861511e-02
-4.062433838844299316e-01 -2.790264785289764404e-01 -1.185391619801521301e-01
-4.354967474937438965e-01 -1.401365846395492554e-01 -1.802241206169128418e-01
-4.820166528224945068e-01 -4.283422231674194336e-02 -1.719807982444763184e-01
-2.864706516265869141e-01 -4.073624312877655029e-01 -1.663915663957595825e-01
-3.227271437644958496e-01 -4.325577318668365479e-01 -1.251566261053085327e-01
-3.508738577365875244e-01 -4.609478116035461426e-01 -9.212383627891540527e-02
-3.763308525085449219e-01 -4.646852314472198486e-01 -4.015865921974182129e-02
-3.870027065277099609e-01 -4.155133664608001709e-01 -5.668697133660316467e-02
-4.109962284564971924e-01 -3.364561796188354492e-01 -1.209789663553237915e-01
-4.445456564426422119e-01 -2.022400498390197754e-01 -1.923099160194396973e-01
-4.849286079406738281e-01 -6.927368044853210449e-02 -2.438362240791320801e-01
-3.073831796646118164e-01 -3.777058422565460205e-01 -2.333424091339111328e-01
-3.366961777210235596e-01 -3.990562260150909424e-01 -2.040352523326873779e-01
-3.655262589454650879e-01 -4.260840713977813721e-01 -1.796030402183532715e-01
-3.965969681739807129e-01 -4.572053849697113037e-01 -1.455598473548889160e-01
-4.196197390556335449e-01 -4.589409828186035156e-01 -7.019060850143432617e-02
-4.326994419097900391e-01 -3.747093677520751953e-01 -1.019830927252769470e-01
-4.578910171985626221e-01 -2.494703382253646851e-01 -1.508907079696655273e-01
-4.906461238861083984e-01 -1.274451017379760742e-01 -1.820454895496368408e-01
-3.436354994773864746e-01 -3.471713364124298096e-01 -2.867965102195739746e-01
-3.800120055675506592e-01 -3.497943878173828125e-01 -2.317728698253631592e-01
-4.103660583496093750e-01 -3.655239045619964600e-01 -1.943627893924713135e-01
-4.428038001060485840e-01 -4.043424725532531738e-01 -1.674243658781051636e-01
-4.574200809001922607e-01 -4.299768209457397461e-01 -1.251185834407806396e-01
-4.612216651439666748e-01 -4.058873057365417480e-01 -4.332527518272399902e-02
-4.708005785942077637e-01 -3.072334527969360352e-01 -7.266479730606079102e-02
-4.978969991207122803e-01 -1.904543191194534302e-01 -9.572696685791015625e-02
-3.814564049243927002e-01 -3.201818168163299561e-01 -3.450145423412322998e-01
-4.249820411205291748e-01 -3.111507296562194824e-01 -2.730650007724761963e-01
-4.614786505699157715e-01 -3.141246438026428223e-01 -2.141920030117034912e-01
-4.837155640125274658e-01 -3.302250504493713379e-01 -1.606077700853347778e-01
-4.885042309761047363e-01 -3.670140206813812256e-01 -1.328077316284179688e-01
-4.909024238586425781e-01 -4.003785848617553711e-01 -7.407521456480026245e-02
-5.043166875839233398e-01 -3.576537966728210449e-01 1.851543784141540527e-03
-5.528542995452880859e-01 -2.504367828369140625e-01 -3.943137079477310181e-02
7.653255760669708252e-02 9.297147393226623535e-03 -4.828840792179107666e-01
5.882577598094940186e-02 1.049702465534210205e-01 -5.064357519149780273e-01
3.666938841342926025e-02 1.687489897012710571e-01 -5.280067920684814453e-01
9.005025029182434082e-03 2.141104340553283691e-01 -5.382215380668640137e-01
-1.654848083853721619e-02 2.647075653076171875e-01 -5.437103509902954102e-01
-3.992742672562599182e-02 2.991005182266235352e-01 -5.450824499130249023e-01
-6.175873428583145142e-02 3.294880390167236328e-01 -5.459238886833190918e-01
-9.138072282075881958e-02 3.557164371013641357e-01 -5.443090200424194336e-01
4.869703948497772217e-02 -3.988376259803771973e-02 -5.054560899734497070e-01
2.357111871242523193e-02 4.433514922857284546e-02 -4.916898310184478760e-01
2.724621444940567017e-03 1.320376694202423096e-01 -5.143634080886840820e-01
-2.199424803256988525e-02 1.811812520027160645e-01 -5.284174680709838867e-01
-4.679103940725326538e-02 2.245151400566101074e-01 -5.354694128036499023e-01
-6.674758344888687134e-02 2.768307924270629883e-01 -5.407907366752624512e-01
-8.245343714952468872e-02 3.123778700828552246e-01 -5.428373813629150391e-01
-1.107578873634338379e-01 3.476866185665130615e-01 -5.389809608459472656e-01
3.142252564430236816e-02 8.306130766868591309e-03 -5.358570814132690430e-01
-1.550167798995971680e-02 -2.113533020019531250e-02 -4.894829988479614258e-01
-3.371282294392585754e-02 7.742404192686080933e-02 -4.904655516147613525e-01
-5.469329655170440674e-02 1.456861495971679688e-01 -5.068464279174804688e-01
-7.048919796943664551e-02 1.900177001953125000e-01 -5.197350978851318359e-01
-8.684606850147247314e-02 2.387141287326812744e-01 -5.295729041099548340e-01
-1.059823632240295410e-01 2.918537855148315430e-01 -5.329288244247436523e-01
-1.297446042299270630e-01 3.320347070693969727e-01 -5.296706557273864746e-01
1.158872991800308228e-02 5.487219989299774170e-02 -5.396240949630737305e-01
-3.511144965887069702e-02 2.024769783020019531e-04 -5.287596583366394043e-01
-7.079520821571350098e-02 3.696829080581665039e-03 -4.756023883819580078e-01
-7.736147940158843994e-02 9.563426673412322998e-02 -4.861039519309997559e-01
-9.169729053974151611e-02 1.565590053796768188e-01 -5.007681846618652344e-01
-1.093807667493820190e-01 2.035350650548934937e-01 -5.121026635169982910e-01
-1.220224052667617798e-01 2.627582848072052002e-01 -5.220981240272521973e-01
-1.432903856039047241e-01 3.180565237998962402e-01 -5.200791954994201660e-01
-8.556146174669265747e-03 9.492410719394683838e-02 -5.404504537582397461e-01
-5.194858461618423462e-02 4.361701011657714844e-02 -5.411368608474731445e-01
-8.937586843967437744e-02 -1.086144149303436279e-02 -5.079839229583740234e-01
-1.071225255727767944e-01 2.939441800117492676e-02 -4.690861403942108154e-01
-1.176120787858963013e-01 1.146063283085823059e-01 -4.812585413455963135e-01
-1.254473328590393066e-01 1.737112998962402344e-01 -4.930613338947296143e-01
-1.370523571968078613e-01 2.256241440773010254e-01 -5.033922791481018066e-01
-1.524652689695358276e-01 2.887161076068878174e-01 -5.102112889289855957e-01
-3.978642076253890991e-02 1.413632780313491821e-01 -5.485777854919433594e-01
-8.106625080108642578e-02 8.263555169105529785e-02 -5.429550409317016602e-01
-1.053379774093627930e-01 3.211688995361328125e-02 -5.291978120803833008e-01
-1.380194276571273804e-01 -6.677210330963134766e-03 -4.831524789333343506e-01
-1.398019641637802124e-01 6.104064732789993286e-02 -4.645299315452575684e-01
-1.460855007171630859e-01 1.372893303632736206e-01 -4.723545312881469727e-01
-1.566421091556549072e-01 1.916693449020385742e-01 -4.815196096897125244e-01
-1.694430857896804810e-01 2.515111565589904785e-01 -4.931526780128479004e-01
-7.399165630340576172e-02 1.947076320648193359e-01 -5.533172488212585449e-01
-1.119771152734756470e-01 1.382757723331451416e-01 -5.391808748245239258e-01
-1.398267149925231934e-01 8.216766268014907837e-02 -5.223242044448852539e-01
-1.601560860872268677e-01 3.084474056959152222e-02 -5.087122321128845215e-01
-1.804460287094116211e-01 1.714901626110076904e-02 -4.537346363067626953e-01
-1.770434826612472534e-01 9.443064033985137939e-02 -4.548796117305755615e-01
-1.845458149909973145e-01 1.574122905731201172e-01 -4.602123498916625977e-01
-1.921252757310867310e-01 2.155278176069259644e-01 -4.708618521690368652e-01
-1.231774240732192993e-01 2.248134016990661621e-01 -5.599114298820495605e-01
-1.562770307064056396e-01 1.882303655147552490e-01 -5.430346727371215820e-01
-1.746842712163925171e-01 1.401308178901672363e-01 -5.169317722320556641e-01
-1.926328241825103760e-01 8.807069063186645508e-02 -5.013028383255004883e-01
-2.128871232271194458e-01 3.538188338279724121e-02 -4.783824086189270020e-01
-2.188062816858291626e-01 4.711544513702392578e-02 -4.385182261466979980e-01
-2.139725387096405029e-01 1.213385015726089478e-01 -4.444262981414794922e-01
-2.202695310115814209e-01 1.862713992595672607e-01 -4.503439366817474365e-01
-5.414935350418090820e-01 3.827467560768127441e-01 -1.042828708887100220e-01
-5.441965460777282715e-01 4.332551360130310059e-01 -8.737587183713912964e-02
-5.473110675811767578e-01 4.529282152652740479e-01 -7.780085504055023193e-02
-5.496116280555725098e-01 4.620653986930847168e-01 -7.332468777894973755e-02
-5.508999824523925781e-01 4.694821536540985107e-01 -7.099828869104385376e-02
-5.513396263122558594e-01 4.755886793136596680e-01 -6.650581210851669312e-02
-5.505427122116088867e-01 4.806118607521057129e-01 -6.144832819700241089e-02
-5.482504367828369141e-01 4.880538582801818848e-01 -4.673331975936889648e-02
-5.367530584335327148e-01 3.368654549121856689e-01 -1.099326759576797485e-01
-5.409169793128967285e-01 4.054366052150726318e-01 -1.091198027133941650e-01
-5.446150898933410645e-01 4.475250840187072754e-01 -9.890728443861007690e-02
-5.470961332321166992e-01 4.633875489234924316e-01 -9.941556304693222046e-02
-5.488280653953552246e-01 4.728022813796997070e-01 -9.706307947635650635e-02
-5.495932698249816895e-01 4.804290533065795898e-01 -8.956763893365859985e-02
-5.486707091331481934e-01 4.879326224327087402e-01 -8.207264542579650879e-02
-5.455363988876342773e-01 4.966045618057250977e-01 -7.379525899887084961e-02
-5.334466695785522461e-01 2.870251536369323730e-01 -1.155691593885421753e-01
-5.361524820327758789e-01 3.713478446006774902e-01 -1.253723502159118652e-01
-5.414304137229919434e-01 4.263385534286499023e-01 -1.266339570283889771e-01
-5.451903939247131348e-01 4.554327726364135742e-01 -1.188785433769226074e-01
-5.471516251564025879e-01 4.712747633457183838e-01 -1.163816899061203003e-01
-5.482706427574157715e-01 4.804790616035461426e-01 -1.103216931223869324e-01
-5.472541451454162598e-01 4.909978508949279785e-01 -1.007568538188934326e-01
-5.436928868293762207e-01 5.013020038604736328e-01 -9.069883078336715698e-02
-5.303124785423278809e-01 2.392389923334121704e-01 -1.230024844408035278e-01
-5.333962440490722656e-01 3.273000717163085938e-01 -1.342957019805908203e-01
-5.388684272766113281e-01 3.965603113174438477e-01 -1.435499489307403564e-01
-5.424420237541198730e-01 4.371952414512634277e-01 -1.406242549419403076e-01
-5.445161461830139160e-01 4.619655311107635498e-01 -1.325422078371047974e-01
-5.463820695877075195e-01 4.769250154495239258e-01 -1.241913139820098877e-01
-5.465046763420104980e-01 4.896030426025390625e-01 -1.165278553962707520e-01
-5.452041625976562500e-01 5.042076706886291504e-01 -1.032204926013946533e-01
-5.277172327041625977e-01 1.765086352825164795e-01 -1.247289180755615234e-01
-5.315344333648681641e-01 2.797804474830627441e-01 -1.438234299421310425e-01
-5.354636907577514648e-01 3.576245903968811035e-01 -1.506483554840087891e-01
-5.390483736991882324e-01 4.094384312629699707e-01 -1.540231406688690186e-01
-5.410646200180053711e-01 4.441508352756500244e-01 -1.510367393493652344e-01
-5.434421896934509277e-01 4.669566750526428223e-01 -1.403418630361557007e-01
-5.452796816825866699e-01 4.850852489471435547e-01 -1.277688890695571899e-01
-5.464885234832763672e-01 5.049418210983276367e-01 -1.144152134656906128e-01
-5.228073000907897949e-01 1.236852109432220459e-01 -1.548563390970230103e-01
-5.285518765449523926e-01 2.134203314781188965e-01 -1.448484063148498535e-01
-5.320239663124084473e-01 3.047881722450256348e-01 -1.580783277750015259e-01
-5.360180139541625977e-01 3.696199357509613037e-01 -1.549982428550720215e-01
-5.401102900505065918e-01 4.126705825328826904e-01 -1.510081291198730469e-01
-5.424752235412597656e-01 4.505464434623718262e-01 -1.450136005878448486e-01
-5.448183417320251465e-01 4.753969013690948486e-01 -1.324354559183120728e-01
-5.482355952262878418e-01 5.007754564285278320e-01 -1.132753640413284302e-01
-5.179874897003173828e-01 1.881781965494155884e-01 -1.838631331920623779e-01
-5.368756651878356934e-01 1.714876145124435425e-01 -1.356539428234100342e-01
-5.385063886642456055e-01 2.477790266275405884e-01 -1.263760328292846680e-01
-5.390603542327880859e-01 3.201775252819061279e-01 -1.308343708515167236e-01
-5.410030484199523926e-01 3.688020110130310059e-01 -1.323096156120300293e-01
-5.431104898452758789e-01 4.172040820121765137e-01 -1.284966915845870972e-01
-5.451158881187438965e-01 4.588289856910705566e-01 -1.234530061483383179e-01
-5.477759838104248047e-01 4.904409945011138916e-01 -1.128665879368782043e-01
-5.182693004608154297e-01 2.637279331684112549e-01 -1.728055477142333984e-01
-5.313991308212280273e-01 2.234186828136444092e-01 -1.475489735603332520e-01
-5.463498234748840332e-01 2.108303308486938477e-01 -9.788510203361511230e-02
-5.455827713012695312e-01 2.712047696113586426e-01 -8.840725570917129517e-02
-5.442488193511962891e-01 3.289919793605804443e-01 -9.909981489181518555e-02
-5.443882346153259277e-01 3.801793456077575684e-01 -1.027560085058212280e-01
-5.458034873008728027e-01 4.282507896423339844e-01 -1.072441637516021729e-01
-5.485828518867492676e-01 4.711467623710632324e-01 -1.032204777002334595e-01
-4.023110866546630859e-01 -2.671734094619750977e-01 1.042739003896713257e-01
-4.095193743705749512e-01 -2.042306363582611084e-01 9.072323143482208252e-02
-4.128680229187011719e-01 -1.593165248632431030e-01 8.791778981685638428e-02
-4.174104928970336914e-01 -1.095423102378845215e-01 7.924166321754455566e-02
-4.206268787384033203e-01 -5.724886059761047363e-02 6.658919155597686768e-02
-4.224505424499511719e-01 -8.375152945518493652e-03 6.025156378746032715e-02
-4.264927506446838379e-01 3.481209278106689453e-02 7.419440150260925293e-02
