-5.931592360138893127e-02 -1.318592461757361889e-03 -4.115410447120666504e-01
3.820754289627075195e-01 8.608032464981079102e-01 3.062952160835266113e-01
3.285630643367767334e-01 -3.236825764179229736e-01 -2.839846312999725342e-01
3.898603841662406921e-02 3.593428432941436768e-01 -4.142877757549285889e-01
4.272533655166625977e-01 -6.410137414932250977e-01 2.253861427307128906e-01
-2.293050885200500488e-01 -5.572271347045898438e-01 -3.584208488464355469e-01
3.042619228363037109e-01 -6.936745643615722656e-01 -3.026335239410400391e-01
-9.613066166639328003e-02 1.204071566462516785e-01 5.012195110321044922e-01
-2.717633247375488281e-01 6.385029554367065430e-01 -3.271667659282684326e-01
-1.177520602941513062e-01 -1.698451042175292969e-01 -7.891074419021606445e-01
7.252796739339828491e-02 -1.937099844217300415e-01 -7.718142867088317871e-01
1.859625577926635742e-01 -6.994479894638061523e-02 4.711201190948486328e-01
4.643051028251647949e-01 2.838164567947387695e-01 6.707156449556350708e-02
-3.642967343330383301e-01 7.850629687309265137e-01 -2.376285642385482788e-01
-1.064815372228622437e-01 5.021485090255737305e-01 -6.114538908004760742e-01
-3.062497079372406006e-01 5.194984674453735352e-01 3.952319324016571045e-01
4.786752536892890930e-02 2.617606222629547119e-01 -8.316360116004943848e-01
3.122684061527252197e-01 -6.946903467178344727e-01 -1.091628149151802063e-01
2.766793072223663330e-01 5.400617122650146484e-01 -3.238006234169006348e-01
3.617274761199951172e-01 5.700686946511268616e-02 3.361843824386596680e-01
4.614901542663574219e-01 6.213161945343017578e-01 6.082008592784404755e-03
4.534257352352142334e-01 6.831493973731994629e-01 -5.514490231871604919e-02
-2.770543396472930908e-01 -2.849096655845642090e-01 -3.231068849563598633e-01
6.697537750005722046e-02 -3.386117517948150635e-01 -5.866274833679199219e-01
-1.054574325680732727e-01 6.874336600303649902e-01 -4.054660797119140625e-01
2.665009200572967529e-01 -3.905759155750274658e-01 -3.316115736961364746e-01
-1.557048708200454712e-01 2.120097577571868896e-01 4.834317862987518311e-01
-3.456579446792602539e-01 5.907102227210998535e-01 -2.619180977344512939e-01
-7.964002341032028198e-02 6.045906543731689453e-01 5.033906698226928711e-01
-1.455705314874649048e-01 -4.320715367794036865e-01 -3.931039571762084961e-01
7.548792660236358643e-02 4.893558323383331299e-01 -6.381399035453796387e-01
-6.863614171743392944e-02 -2.540933787822723389e-01 -7.186303734779357910e-01
-2.341487854719161987e-01 -4.616420567035675049e-01 -3.560290336608886719e-01
-3.872087597846984863e-01 4.202264547348022461e-01 -2.077702432870864868e-01
2.593647316098213196e-02 -3.693651258945465088e-01 -4.463470280170440674e-01
4.533122777938842773e-01 1.353132426738739014e-01 1.505319029092788696e-01
-1.095657497644424438e-01 1.697965635685250163e-04 -8.586283326148986816e-01
-5.318009108304977417e-02 3.234701454639434814e-01 -8.053072690963745117e-01
-1.326291412115097046e-01 4.660800099372863770e-01 4.929898083209991455e-01
-1.723439246416091919e-02 6.540780067443847656e-01 -4.170814752578735352e-01
2.218522578477859497e-01 3.871469572186470032e-02 -3.617290556430816650e-01
-4.564734399318695068e-01 6.855589896440505981e-02 -2.801146917045116425e-02
4.591966867446899414e-01 -3.982978761196136475e-01 1.058559194207191467e-01
3.630234673619270325e-02 4.936667084693908691e-01 5.091665387153625488e-01
-3.657301068305969238e-01 6.553658843040466309e-01 -2.357606291770935059e-01
3.790863752365112305e-01 1.059096083045005798e-01 -2.190343737602233887e-01
3.642363846302032471e-01 -9.528852999210357666e-02 3.329147696495056152e-01
1.721405833959579468e-01 3.335716426372528076e-01 4.768452644348144531e-01
-4.635588228702545166e-01 8.293542265892028809e-01 6.871208548545837402e-02
-4.519159495830535889e-01 -5.202253907918930054e-02 -6.263257563114166260e-02
-1.714734882116317749e-01 3.041642308235168457e-01 4.769003689289093018e-01
4.581364095211029053e-01 1.437294036149978638e-01 -1.938026957213878632e-02
1.337016224861145020e-01 6.110940575599670410e-01 -3.982413709163665771e-01
9.240069240331649780e-02 -3.259890079498291016e-01 -4.072553813457489014e-01
3.614536672830581665e-02 7.359868884086608887e-01 5.091872215270996094e-01
4.607258141040802002e-01 5.255234241485595703e-01 2.790389407891780138e-04
4.453413784503936768e-01 5.789686441421508789e-01 -8.719094097614288330e-02
2.047888934612274170e-01 -2.298479974269866943e-01 -3.687967658042907715e-01
4.668318331241607666e-01 -2.617766559123992920e-01 4.663724079728126526e-02
9.832511842250823975e-02 7.391242384910583496e-01 -4.064753651618957520e-01
1.020557507872581482e-01 6.913705468177795410e-01 -4.059842228889465332e-01
4.239164292812347412e-01 3.001815080642700195e-01 -1.389156430959701538e-01
4.358563944697380066e-02 -2.289003133773803711e-01 -7.446565032005310059e-01
-3.860741257667541504e-01 -2.400008589029312134e-02 -2.092489153146743774e-01
3.769090473651885986e-01 4.571400117129087448e-03 -2.218718975782394409e-01
4.667145609855651855e-01 4.439109265804290771e-01 4.574703425168991089e-02
3.617427945137023926e-01 1.197521388530731201e-01 3.361644744873046875e-01
2.074100822210311890e-01 -6.946903467178344727e-01 -3.288454115390777588e-01
-2.001980841159820557e-01 -1.871939189732074738e-02 -3.704770505428314209e-01
-2.850812375545501709e-01 -1.811291277408599854e-01 -3.169477283954620361e-01
1.081182956695556641e-01 -6.946903467178344727e-01 -3.472130298614501953e-01
4.340476393699645996e-01 -2.825922966003417969e-01 -1.144566386938095093e-01
5.645891651511192322e-02 -1.347674876451492310e-01 -4.119873344898223877e-01
4.634434580802917480e-01 -6.245740652084350586e-01 7.361364364624023438e-02
4.266472160816192627e-01 -4.316025413572788239e-03 -1.323228776454925537e-01
-1.792320758104324341e-01 4.188189804553985596e-01 4.736866652965545654e-01
-8.764898777008056641e-02 8.172009587287902832e-01 5.023362040519714355e-01
-4.230890572071075439e-01 5.891772508621215820e-01 -1.396543681621551514e-01
-4.595184922218322754e-01 5.070316195487976074e-01 9.940484166145324707e-02
2.168162316083908081e-01 3.833049237728118896e-01 -3.638149499893188477e-01
3.108079433441162109e-01 -6.946903467178344727e-01 8.536136709153652191e-03
3.470876216888427734e-01 6.695319414138793945e-01 -2.607355117797851562e-01
-6.597740203142166138e-02 5.247992277145385742e-01 -5.560898184776306152e-01
1.651191562414169312e-01 5.189678072929382324e-01 4.797535836696624756e-01
2.684621214866638184e-01 -6.946903467178344727e-01 -2.683385834097862244e-02
2.825706601142883301e-01 -1.793448030948638916e-01 4.138061404228210449e-01
-8.531411737203598022e-02 -6.233108043670654297e-01 -4.081181287765502930e-01
-3.174244165420532227e-01 7.435353994369506836e-01 -2.921302616596221924e-01
-1.756921992637217045e-04 3.650652766227722168e-01 -7.731059789657592773e-01
-4.505600035190582275e-01 7.008780837059020996e-01 1.674586832523345947e-01
4.140030145645141602e-01 5.818881466984748840e-02 2.573761045932769775e-01
4.345729947090148926e-01 -3.786315321922302246e-01 -1.131882891058921814e-01
3.019039332866668701e-01 9.564875811338424683e-02 3.989700675010681152e-01
-4.209370911121368408e-01 7.931381464004516602e-01 -1.448499560356140137e-01
1.360293328762054443e-01 -9.793782234191894531e-02 -3.972771763801574707e-01
-4.481696784496307373e-01 4.910118877887725830e-01 -7.910111546516418457e-02
9.064545482397079468e-02 2.872849106788635254e-01 5.020118951797485352e-01
-2.254020720720291138e-01 2.792573571205139160e-01 -3.600374758243560791e-01
-7.491572946310043335e-02 4.094072878360748291e-01 -4.094871878623962402e-01
3.264263868331909180e-01 5.836089849472045898e-01 -2.856243550777435303e-01
-1.143816038966178894e-01 -2.901518046855926514e-01 -6.712268590927124023e-01
-4.556911587715148926e-01 3.256299495697021484e-01 -3.395385667681694031e-02
-2.309449203312397003e-02 5.323297381401062012e-01 -5.371864438056945801e-01
2.522249221801757812e-01 2.159218937158584595e-01 -3.425670564174652100e-01
8.960444480180740356e-02 7.875068783760070801e-01 5.021489858627319336e-01
-1.882049292325973511e-01 -1.890436112880706787e-01 -3.754446208477020264e-01
2.020578533411026001e-01 -1.499478965997695923e-01 4.644533991813659668e-01
-4.250802695751190186e-01 5.095942616462707520e-01 2.293736040592193604e-01
-2.634067833423614502e-01 2.795847058296203613e-01 -3.335789144039154053e-01
4.572571516036987305e-01 4.619345441460609436e-02 -2.605578303337097168e-02
4.635125994682312012e-01 -5.454572439193725586e-01 2.143698744475841522e-02
2.633704058825969696e-02 5.409011244773864746e-01 -4.159530997276306152e-01
-4.451632872223854065e-02 2.396819442510604858e-01 -4.134895205497741699e-01
4.571861922740936279e-01 3.213912546634674072e-01 -2.659458294510841370e-02
-2.573534101247787476e-02 3.890649229288101196e-02 -4.159622192382812500e-01
-3.587939143180847168e-01 -6.050505489110946655e-02 -2.447996884584426880e-01
4.343255758285522461e-01 4.000134468078613281e-01 2.083118706941604614e-01
1.811455041170120239e-01 6.331726908683776855e-01 -3.785898983478546143e-01
-2.851453423500061035e-01 1.299580931663513184e-01 -3.168985247611999512e-01
4.071162045001983643e-01 -6.946903467178344727e-01 -9.873947501182556152e-02
4.512374401092529297e-01 -4.334555566310882568e-01 -7.175883650779724121e-02
2.267078682780265808e-02 -6.946903467178344727e-01 -3.090381920337677002e-01
2.820025086402893066e-01 -1.642797589302062988e-01 -3.197155296802520752e-01
4.579673707485198975e-01 3.059822022914886475e-01 1.151892915368080139e-01
-4.679956287145614624e-02 1.657721400260925293e-01 5.077143907546997070e-01
-1.965788006782531738e-01 -2.960111200809478760e-01 -3.719761371612548828e-01
3.760282695293426514e-02 -2.231949269771575928e-01 -4.144698977470397949e-01
2.491850107908248901e-01 -6.523722410202026367e-01 -3.448999524116516113e-01
2.742332220077514648e-01 2.612664103507995605e-01 4.202041327953338623e-01
-2.436152398586273193e-01 -6.562992930412292480e-01 -3.487652838230133057e-01
4.610511362552642822e-01 7.036169767379760742e-01 2.748773200437426567e-03
1.137692108750343323e-01 -6.946903467178344727e-01 -2.637028992176055908e-01
4.587082862854003906e-01 -5.241194367408752441e-01 1.095640435814857483e-01
4.211590290069580078e-01 -5.663996338844299316e-01 2.400994598865509033e-01
3.840933144092559814e-01 7.623341679573059082e-01 3.070369958877563477e-01
-1.175041198730468750e-01 4.202805757522583008e-01 -4.038800001144409180e-01
-3.049021065235137939e-01 2.309485077857971191e-01 3.962659537792205811e-01
4.540472924709320068e-01 -5.408650040626525879e-01 -5.042606219649314880e-02
4.559085369110107422e-01 6.673505157232284546e-02 1.308202296495437622e-01
4.657899141311645508e-01 -1.023098826408386230e-01 3.872665762901306152e-02
-3.890806138515472412e-01 -1.391164511442184448e-01 -2.053309231996536255e-01
-2.015367522835731506e-02 4.055123627185821533e-01 5.112225413322448730e-01
-1.306668017059564590e-02 -2.048584967851638794e-01 -4.176301956176757812e-01
-7.175537943840026855e-02 -3.687922358512878418e-01 -4.870291650295257568e-01
1.064975559711456299e-01 1.947800070047378540e-01 4.999248981475830078e-01
3.788819313049316406e-01 -6.946903467178344727e-01 6.981682032346725464e-02
5.282496660947799683e-02 -2.980254888534545898e-01 -4.124657809734344482e-01
4.088414013385772705e-01 -5.144514441490173340e-01 2.698376178741455078e-01
3.035309314727783203e-01 4.492960572242736816e-01 -3.031944930553436279e-01
3.356889784336090088e-01 8.608032464981079102e-01 -2.361817061901092529e-01
2.005895227193832397e-01 8.135297298431396484e-01 4.650615751743316650e-01
3.485141098499298096e-01 2.284576147794723511e-01 -2.588764727115631104e-01
-4.438886940479278564e-01 4.178572595119476318e-01 -8.943688869476318359e-02
-4.596387743949890137e-01 6.918280124664306641e-01 -3.965569194406270981e-03
2.722098827362060547e-01 -6.946903467178344727e-01 1.053443178534507751e-01
4.554696977138519287e-01 3.747008442878723145e-01 1.341519355773925781e-01
3.692020773887634277e-01 -5.770555138587951660e-01 -2.319157272577285767e-01
2.850902080535888672e-01 2.748123407363891602e-01 -3.173460066318511963e-01
4.209340512752532959e-01 8.608032464981079102e-01 2.152287065982818604e-01
-2.794275581836700439e-01 3.707834705710411072e-02 -3.212858736515045166e-01
-1.100243404507637024e-01 2.882616519927978516e-01 4.993902742862701416e-01
4.092825353145599365e-01 -3.127187862992286682e-02 2.687726020812988281e-01
4.515487551689147949e-01 -6.089681386947631836e-01 1.639207452535629272e-01
-1.243301182985305786e-01 7.884196639060974121e-01 -4.019018113613128662e-01
3.498494327068328857e-01 3.190232813358306885e-01 -2.571362853050231934e-01
-4.655168354511260986e-01 3.487763106822967529e-01 4.068787023425102234e-02
-1.395106017589569092e-01 1.616237312555313110e-01 -3.956139981746673584e-01
6.136679276823997498e-02 6.697700917720794678e-02 5.058666467666625977e-01
-1.916787326335906982e-01 5.651805400848388672e-01 -3.740057647228240967e-01
4.465600848197937012e-01 3.730040788650512695e-01 -8.424872905015945435e-02
5.102951824665069580e-02 5.410456061363220215e-01 -4.947699010372161865e-01
2.919943630695343018e-01 8.214173913002014160e-01 4.065745174884796143e-01
-4.099827706813812256e-01 3.871171772480010986e-01 -1.712974011898040771e-01
-3.535176515579223633e-01 -3.791089653968811035e-01 -2.516755461692810059e-01
2.265552580356597900e-01 2.823186814785003662e-01 4.543064534664154053e-01
-2.818312942981719971e-01 6.208523511886596680e-01 4.139680564403533936e-01
-5.818308144807815552e-02 5.485050380229949951e-02 -8.658778667449951172e-01
-4.115557670593261719e-02 -6.946903467178344727e-01 -4.073835909366607666e-01
-2.644796669483184814e-01 3.682017326354980469e-01 -3.327556550502777100e-01
-3.575367033481597900e-01 7.247333526611328125e-01 3.409657776355743408e-01
3.634319007396697998e-01 2.260483950376510620e-01 3.339631855487823486e-01
6.372027844190597534e-02 -3.629596531391143799e-01 -5.093531012535095215e-01
3.307685554027557373e-01 -6.946903467178344727e-01 -2.611167430877685547e-01
2.606036365032196045e-01 3.625808954238891602e-01 -3.361371755599975586e-01
4.659954011440277100e-01 -6.617898344993591309e-01 4.028682038187980652e-02
-6.380402296781539917e-02 3.677690923213958740e-01 -4.109501242637634277e-01
4.719381034374237061e-02 3.357664346694946289e-01 5.077326297760009766e-01
3.289761841297149658e-01 -6.946903467178344727e-01 5.800094828009605408e-02
4.636102020740509033e-01 6.827680766582489014e-02 7.234779000282287598e-02
-2.096411734819412231e-01 -8.789158612489700317e-02 -3.665657043457031250e-01
-1.710345968604087830e-02 3.992528617382049561e-01 -7.469626069068908691e-01
-8.416577428579330444e-02 8.069394230842590332e-01 -4.082693159580230713e-01
-4.646883904933929443e-01 7.765993475914001465e-02 6.013100221753120422e-02
-6.789360940456390381e-02 -6.946903467178344727e-01 -1.881438791751861572e-01
3.585034981369972229e-02 -7.822897285223007202e-02 -4.147006273269653320e-01
-2.168726734817028046e-02 3.240193799138069153e-02 -8.629543185234069824e-01
-4.827573895454406738e-02 1.457139849662780762e-01 -4.129945933818817139e-01
3.878464400768280029e-01 5.231645703315734863e-01 3.021458685398101807e-01
-3.539180755615234375e-01 5.269801616668701172e-01 -2.511537373065948486e-01
1.169066950678825378e-01 -1.163822412490844727e-01 -8.204463720321655273e-01
3.918325901031494141e-01 -1.274565160274505615e-01 -2.024233490228652954e-01
3.775712549686431885e-01 3.879849612712860107e-01 -2.210088819265365601e-01
3.052496910095214844e-01 1.463662534952163696e-01 -3.018755018711090088e-01
-5.105728656053543091e-02 2.328640669584274292e-01 5.071538090705871582e-01
4.601576924324035645e-01 7.467615008354187012e-01 -4.034351557493209839e-03
4.289125502109527588e-01 6.520219445228576660e-01 2.213803529739379883e-01
-3.028846383094787598e-01 2.840247154235839844e-01 3.978139758110046387e-01
1.594413630664348602e-02 -2.953200340270996094e-01 -6.656769514083862305e-01
-1.760696619749069214e-01 8.278093338012695312e-01 4.749965667724609375e-01
-2.019279301166534424e-01 8.214254975318908691e-01 -3.697605133056640625e-01
-4.778160247951745987e-03 -1.007520630955696106e-01 -8.265686631202697754e-01
4.070005714893341064e-01 -5.818962454795837402e-01 -1.797542572021484375e-01
3.199627101421356201e-01 6.926773786544799805e-01 -2.905846238136291504e-01
3.931817412376403809e-01 3.091931939125061035e-01 -2.006651163101196289e-01
4.667092263698577881e-01 -3.524202406406402588e-01 4.881899431347846985e-02
2.182184308767318726e-01 -6.008767485618591309e-01 -3.632341623306274414e-01
7.053047418594360352e-02 2.573679089546203613e-01 -4.101347327232360840e-01
4.568699300289154053e-01 2.216689586639404297e-01 1.235211566090583801e-01
4.566437005996704102e-01 2.721562981605529785e-01 -3.071347624063491821e-02
2.026449739933013916e-01 -4.970360994338989258e-01 -3.696847558021545410e-01
4.606849849224090576e-01 -3.274597227573394775e-01 9.455656260251998901e-02
4.108667969703674316e-01 2.312143743038177490e-01 -1.704203486442565918e-01
-1.762980818748474121e-01 7.372201979160308838e-02 -3.803764879703521729e-01
4.264669716358184814e-01 -4.857054352760314941e-01 2.272847145795822144e-01
-2.754108309745788574e-01 -1.161468699574470520e-01 -3.243680000305175781e-01
3.037661612033843994e-01 6.213245987892150879e-01 -3.030139505863189697e-01
1.019038930535316467e-01 4.645506441593170166e-01 -6.702238321304321289e-01
4.460871219635009766e-01 -4.948633611202239990e-01 1.799163371324539185e-01
4.357931315898895264e-01 -5.756868124008178711e-01 -1.102425679564476013e-01
-2.322655916213989258e-02 3.884095251560211182e-01 -4.162925779819488525e-01
1.014208272099494934e-01 8.085550069808959961e-01 -4.060678184032440186e-01
4.519609212875366211e-01 -3.895720243453979492e-01 1.607915312051773071e-01
3.488907814025878906e-01 4.561734795570373535e-01 -2.583856284618377686e-01
-2.383202612400054932e-01 1.798321306705474854e-01 -3.528282046318054199e-01
3.097818791866302490e-01 -4.549325406551361084e-01 -2.983974814414978027e-01
2.819219231605529785e-01 -3.817401528358459473e-01 4.143039584159851074e-01
3.586840331554412842e-01 1.437182128429412842e-01 -2.456229627132415771e-01
4.345157369971275330e-02 8.139643073081970215e-01 -4.136998653411865234e-01
-4.094010591506958008e-01 1.257944107055664062e-01 -1.727018654346466064e-01
-8.206018805503845215e-02 3.471392393112182617e-01 5.030720233917236328e-01
-1.218375414609909058e-01 1.854460388422012329e-01 4.974597394466400146e-01
1.190649569034576416e-01 1.886306107044219971e-01 -4.037448167800903320e-01
4.139960408210754395e-01 -3.322772681713104248e-01 2.573929429054260254e-01
2.291426658630371094e-01 5.527071356773376465e-01 -3.587093353271484375e-01
4.602368474006652832e-01 -8.158604800701141357e-02 9.795881807804107666e-02
-3.771283030509948730e-01 5.741276144981384277e-01 -2.209068387746810913e-01
4.517352581024169922e-02 -1.537306457757949829e-01 -8.023452758789062500e-01
4.441131353378295898e-01 8.608032464981079102e-01 1.054280325770378113e-01
-3.969499766826629639e-01 8.608032464981079102e-01 2.874735891819000244e-01
-4.492320716381072998e-01 2.633647918701171875e-01 -7.653611153364181519e-02
4.617632031440734863e-01 8.068363666534423828e-01 8.637045323848724365e-02
4.317764043807983398e-01 -6.946903467178344727e-01 -1.986206695437431335e-02
4.566070437431335449e-01 -2.245406508445739746e-01 1.255171746015548706e-01
4.080255329608917236e-01 8.244235515594482422e-01 -1.772797405719757080e-01
-3.575812876224517822e-01 8.228325843811035156e-01 3.409076631069183350e-01
3.607034087181091309e-01 6.327690482139587402e-01 -2.429912984371185303e-01
8.297411352396011353e-02 6.938616633415222168e-01 5.030218958854675293e-01
2.789222896099090576e-01 -5.684676766395568848e-01 -3.220793008804321289e-01
-1.873755156993865967e-01 5.717553496360778809e-01 4.703136384487152100e-01
-3.940003216266632080e-01 -2.819436192512512207e-01 -1.989196687936782837e-01
3.060253150761127472e-02 7.448990941047668457e-01 -4.153915345668792725e-01
3.205944597721099854e-01 7.989844679832458496e-01 -2.900997996330261230e-01
-2.125103026628494263e-01 6.959723830223083496e-01 4.599027335643768311e-01
3.673291504383087158e-01 -6.946903467178344727e-01 1.640588194131851196e-01
-3.359885513782501221e-01 3.981879055500030518e-01 -2.745189964771270752e-01
3.829348981380462646e-01 -3.841404318809509277e-01 3.085466623306274414e-01
-3.874601423740386963e-01 4.230428040027618408e-01 3.019704520702362061e-01
7.216384261846542358e-02 -6.946903467178344727e-01 -1.063460409641265869e-01
-4.476262032985687256e-01 3.737549111247062683e-02 -8.041331917047500610e-02
-3.469023108482360840e-01 2.993132174015045166e-01 3.548242151737213135e-01
6.219550967216491699e-03 1.020655632019042969e-01 -8.681170940399169922e-01
4.139449894428253174e-01 -2.817901968955993652e-01 -1.629888415336608887e-01
3.556998372077941895e-01 -4.277747571468353271e-01 -2.495119720697402954e-01
-4.515459239482879639e-01 4.596622288227081299e-01 1.599688977003097534e-01
4.420166611671447754e-01 6.289139389991760254e-01 1.897435486316680908e-01
4.254679679870605469e-01 2.983739376068115234e-01 2.296965420246124268e-01
4.325799942016601562e-01 -6.936414837837219238e-01 2.125261723995208740e-01
3.231596946716308594e-01 3.708715550601482391e-03 3.826587796211242676e-01
-4.415695369243621826e-01 -2.864718623459339142e-02 -9.503611922264099121e-02
1.794800758361816406e-01 5.715084075927734375e-01 -3.792797625064849854e-01
-7.583377510309219360e-02 -2.973918616771697998e-02 -8.547212481498718262e-01
-4.604831710457801819e-02 5.505111217498779297e-01 5.078132748603820801e-01
2.527143061161041260e-01 -6.946903467178344727e-01 -2.056038379669189453e-01
-3.832604587078094482e-01 5.327488183975219727e-01 3.074432909488677979e-01
4.377748370170593262e-01 2.808274030685424805e-01 -1.054583042860031128e-01
4.123027920722961426e-01 1.466131955385208130e-01 -1.669535487890243530e-01
-1.259112209081649780e-01 5.497669577598571777e-01 4.957723915576934814e-01
3.312496244907379150e-01 3.041816353797912598e-01 3.759034872055053711e-01
3.476435542106628418e-01 5.041068792343139648e-01 -2.600110173225402832e-01
-2.516247332096099854e-01 -3.522897958755493164e-01 -3.426194489002227783e-01
-2.544679678976535797e-02 4.842793345451354980e-01 -6.456730961799621582e-01
-4.522125720977783203e-01 3.607350885868072510e-01 1.549048274755477905e-01
-1.678110212087631226e-01 3.749817609786987305e-01 4.784173667430877686e-01
-9.590197354555130005e-02 -3.429018259048461914e-01 -5.735232830047607422e-01
3.785816431045532227e-01 5.494598746299743652e-01 -2.196921110153198242e-01
7.810940593481063843e-02 5.944245457649230957e-01 -4.091368913650512695e-01
-1.762503981590270996e-01 7.524807453155517578e-01 -3.803962767124176025e-01
1.352591365575790405e-01 -6.946903467178344727e-01 -1.307447161525487900e-02
-3.829711675643920898e-01 8.236490488052368164e-01 -2.132925689220428467e-01
4.636766016483306885e-01 7.120552062988281250e-01 7.184349745512008667e-02
4.635807871818542480e-01 -1.895045191049575806e-01 2.195448614656925201e-02
-3.744776248931884766e-01 1.863812357187271118e-01 -2.243611216545104980e-01
2.455719560384750366e-01 -4.216484725475311279e-01 -3.476725816726684570e-01
-1.188893839716911316e-01 5.480630993843078613e-01 -4.504835307598114014e-01
1.105529144406318665e-01 2.722759842872619629e-01 -4.048655033111572266e-01
8.480783551931381226e-02 1.159335076808929443e-01 -8.662183284759521484e-01
2.651526033878326416e-01 5.404947400093078613e-01 4.271724820137023926e-01
-3.823177814483642578e-01 3.622898459434509277e-01 -2.141440510749816895e-01
4.524466991424560547e-01 -1.399049460887908936e-01 1.571035385131835938e-01
4.713230952620506287e-02 -6.442534923553466797e-01 -4.132152795791625977e-01
3.868840336799621582e-01 -6.446002721786499023e-01 3.034001290798187256e-01
1.117579564452171326e-01 4.271899759769439697e-01 4.992323219776153564e-01
1.250403523445129395e-01 -6.736608743667602539e-01 -4.018288552761077881e-01
-1.179994046688079834e-01 -6.946903467178344727e-01 -3.858424127101898193e-01
-4.583085775375366211e-01 3.980144560337066650e-01 1.085957512259483337e-01
-2.752330303192138672e-01 8.608032464981079102e-01 4.184543788433074951e-01
4.069147706031799316e-01 -6.890007257461547852e-01 -1.799614429473876953e-01
2.870272994041442871e-01 3.397126793861389160e-01 4.103862047195434570e-01
-1.282012015581130981e-01 1.732268370687961578e-02 -4.002984166145324707e-01
-3.855344653129577637e-01 -2.056762278079986572e-01 -2.099521905183792114e-01
3.881020843982696533e-01 -1.050333231687545776e-01 3.018127083778381348e-01
-3.353884816169738770e-01 1.820491999387741089e-02 -2.753009796142578125e-01
-1.355727761983871460e-01 -3.892199695110321045e-01 -3.972450792789459229e-01
-3.142519295215606689e-01 1.864014416933059692e-01 -2.945645749568939209e-01
3.509459197521209717e-01 -6.219366788864135742e-01 -2.557073831558227539e-01
3.373408317565917969e-01 5.849152803421020508e-01 3.679653406143188477e-01
-5.900790914893150330e-03 -5.486077666282653809e-01 -4.185736477375030518e-01
-2.522718012332916260e-01 6.496194601058959961e-01 4.366488456726074219e-01
3.135367929935455322e-01 2.253933697938919067e-01 3.900432586669921875e-01
5.397331714630126953e-02 7.485153526067733765e-02 -8.686161637306213379e-01
2.389688193798065186e-01 8.608032464981079102e-01 4.318534731864929199e-01
-4.150714278221130371e-01 1.940353363752365112e-01 2.535388469696044922e-01
1.086369156837463379e-01 2.985540628433227539e-01 -8.162202835083007812e-01
-1.511136144399642944e-01 2.956329882144927979e-01 -3.908079862594604492e-01
-4.644706249237060547e-01 5.200526118278503418e-01 6.178524717688560486e-02
3.890920579433441162e-01 4.091785252094268799e-01 3.005225658416748047e-01
-1.471681892871856689e-01 -5.669379830360412598e-01 -3.924421966075897217e-01
-2.286185175180435181e-01 -2.153910845518112183e-01 -3.587052226066589355e-01
3.406560122966766357e-01 -2.920357584953308105e-01 3.636449873447418213e-01
2.775616347789764404e-01 4.057860672473907471e-01 -3.231234848499298096e-01
4.501900076866149902e-01 6.151585280895233154e-02 1.700108349323272705e-01
1.707861721515655518e-01 -6.946903467178344727e-01 -5.163660272955894470e-02
1.047397330403327942e-01 1.324905604124069214e-01 -4.056308865547180176e-01
-6.902194023132324219e-02 -1.175072342157363892e-01 -4.102631509304046631e-01
-1.180953681468963623e-01 -1.868503242731094360e-01 -4.038021862506866455e-01
1.362089663743972778e-01 1.220387518405914307e-01 4.917282760143280029e-01
3.379875421524047852e-01 7.347880005836486816e-01 3.671225607395172119e-01
4.656149446964263916e-01 6.419712901115417480e-01 5.712724849581718445e-02
-2.893962860107421875e-01 4.838518798351287842e-01 4.081634879112243652e-01
-4.642385542392730713e-01 7.650666236877441406e-01 3.097712993621826172e-02
4.286048412322998047e-01 4.417764842510223389e-01 -1.275967508554458618e-01
3.094551563262939453e-01 7.347733378410339355e-01 -2.986482083797454834e-01
-2.911079525947570801e-01 3.473102450370788574e-01 4.068501293659210205e-01
-4.643490016460418701e-01 2.565432488918304443e-01 3.181623667478561401e-02
-2.440204620361328125e-01 8.361199498176574707e-01 4.429800808429718018e-01
3.384134769439697266e-01 2.690598070621490479e-01 -2.720398008823394775e-01
2.325598597526550293e-01 -6.946903467178344727e-01 -4.134583752602338791e-03
4.539661109447479248e-01 6.908293366432189941e-01 1.455675512552261353e-01
2.550595067441463470e-02 -4.232009053230285645e-01 -4.160625338554382324e-01
3.925097286701202393e-01 -1.778968125581741333e-01 2.960686385631561279e-01
-2.551864385604858398e-01 4.569290280342102051e-01 4.344124495983123779e-01
4.553683102130889893e-01 4.266968667507171631e-01 1.349218338727951050e-01
4.304532408714294434e-01 1.362530291080474854e-01 2.176607400178909302e-01
8.491198718547821045e-02 -2.587706744670867920e-01 -7.139319777488708496e-01
2.148445993661880493e-01 -2.044610232114791870e-01 4.591571390628814697e-01
4.313736557960510254e-01 7.725736498832702637e-01 -1.209121495485305786e-01
4.598606824874877930e-01 7.504767179489135742e-01 1.008147597312927246e-01
-8.165892958641052246e-02 3.199074864387512207e-01 -4.085993766784667969e-01
-4.572652876377105713e-01 7.221512198448181152e-01 1.165213510394096375e-01
-3.227898180484771729e-01 8.087779283523559570e-01 3.825408518314361572e-01
-2.292128056287765503e-01 6.802014708518981934e-01 -3.584590554237365723e-01
4.087754786014556885e-01 5.573971942067146301e-02 -1.754692196846008301e-01
4.193967878818511963e-01 7.277643680572509766e-01 2.443540245294570923e-01
4.526329934597015381e-01 2.509446144104003906e-01 1.556891053915023804e-01
-3.626491725444793701e-01 -2.195927053689956665e-01 -2.397756278514862061e-01
2.285583913326263428e-01 3.642047345638275146e-01 4.534767866134643555e-01
3.761618137359619141e-01 5.732207894325256348e-01 3.173733949661254883e-01
2.012408822774887085e-01 5.169224739074707031e-01 4.647918343544006348e-01
3.964766263961791992e-01 7.796592712402343750e-01 -1.963712126016616821e-01
4.177203476428985596e-01 -1.003336757421493530e-01 2.484014332294464111e-01
-4.647607803344726562e-01 7.121228575706481934e-01 3.494421392679214478e-02
4.047732651233673096e-01 -6.752480268478393555e-01 2.796592712402343750e-01
-1.107791811227798462e-02 5.520171523094177246e-01 -4.147152304649353027e-01
-3.171402812004089355e-01 8.599647283554077148e-01 3.868756592273712158e-01
2.707784473896026611e-01 3.819641172885894775e-01 4.228552579879760742e-01
-3.245606422424316406e-01 8.508491516113281250e-02 -2.866545319557189941e-01
-2.678768336772918701e-01 8.608032464981079102e-01 -3.120746612548828125e-01
4.526472687721252441e-01 1.040476560592651367e-01 -6.105529516935348511e-02
2.000209540128707886e-01 5.774188637733459473e-01 4.652970731258392334e-01
4.352230131626129150e-01 2.040341794490814209e-01 -1.116190105676651001e-01
-4.178573489189147949e-01 2.864620089530944824e-02 -1.522854715585708618e-01
2.084919065237045288e-01 2.330603152513504028e-01 4.617883861064910889e-01
-1.029405966401100159e-01 2.840088605880737305e-01 -8.228565454483032227e-01
3.081194460391998291e-01 6.681529283523559570e-01 3.942003846168518066e-01
8.641833811998367310e-02 -1.661412715911865234e-01 -4.080429971218109131e-01
-2.953035235404968262e-01 3.270102739334106445e-01 -3.091039657592773438e-01
-3.799475133419036865e-01 6.259575486183166504e-01 3.117606937885284424e-01
-4.635728001594543457e-01 1.853601932525634766e-01 6.860578805208206177e-02
-2.796513140201568604e-01 -3.969582021236419678e-01 -3.211142122745513916e-01
-2.052100002765655518e-01 6.010015010833740234e-01 -3.684011101722717285e-01
-2.493849247694015503e-01 -5.969444289803504944e-02 -3.443380892276763916e-01
-2.148553542792797089e-02 -4.507267475128173828e-02 -8.495830297470092773e-01
-3.751293122768402100e-01 2.538766860961914062e-01 3.180396258831024170e-01
2.084002047777175903e-01 4.208826422691345215e-01 -3.673009276390075684e-01
1.611036658287048340e-01 8.608032464981079102e-01 -3.654637038707733154e-01
4.032425880432128906e-01 3.452754318714141846e-01 2.820814251899719238e-01
-8.676481992006301880e-02 7.482986450195312500e-01 5.024526119232177734e-01
4.140722453594207764e-01 8.055858612060546875e-01 2.572088837623596191e-01
-3.560723066329956055e-01 4.836791753768920898e-01 3.428741395473480225e-01
-3.362078368663787842e-01 6.862727403640747070e-01 3.687609136104583740e-01
4.500911533832550049e-01 -9.148307144641876221e-02 1.702494472265243530e-01
-1.585565060377120972e-01 -6.946903467178344727e-01 -2.433198392391204834e-01
2.392168194055557251e-01 6.976909041404724121e-01 -3.525495827198028564e-01
4.533711671829223633e-01 -3.137649595737457275e-01 1.500847935676574707e-01
6.919755786657333374e-02 -1.585875824093818665e-02 5.048356652259826660e-01
-4.488901197910308838e-01 8.608032464981079102e-01 -6.986269354820251465e-02
4.471145272254943848e-01 -1.375410854816436768e-01 -8.291019499301910400e-02
4.474066942930221558e-02 8.608032464981079102e-01 4.862164556980133057e-01
-3.556185066699981689e-01 1.115158572793006897e-01 -2.489377856254577637e-01
-4.454971849918365479e-01 8.608032464981079102e-01 5.054834485054016113e-02
4.567339718341827393e-01 4.110497534275054932e-01 -3.002791479229927063e-02
4.589971899986267090e-01 6.546248197555541992e-01 -1.284505613148212433e-02
4.541530013084411621e-01 5.958478450775146484e-01 -4.962337017059326172e-02
4.608635604381561279e-01 2.514859437942504883e-01 1.324814395047724247e-03
4.646267294883728027e-01 8.128916621208190918e-01 2.989567071199417114e-02
-1.715308427810668945e-01 1.864187866449356079e-01 -3.823511004447937012e-01
-4.584896266460418701e-01 6.170004010200500488e-01 -1.269496232271194458e-02
-2.113095372915267944e-01 2.852961122989654541e-01 4.604001045227050781e-01
4.581477046012878418e-01 5.358102917671203613e-01 1.138201430439949036e-01
-3.467930257320404053e-01 6.107741594314575195e-01 3.549666106700897217e-01
1.654219478368759155e-01 8.362320065498352051e-01 4.796281158924102783e-01
4.393149912357330322e-01 1.956016719341278076e-01 1.962659955024719238e-01
-3.638177812099456787e-01 3.863656520843505859e-02 -2.382527589797973633e-01
3.337142169475555420e-01 -2.173773944377899170e-01 -2.781639099121093750e-01
3.402524292469024658e-01 8.294350504875183105e-01 3.641709089279174805e-01
-3.213441371917724609e-01 5.526225566864013672e-01 3.836501538753509521e-01
-3.851197287440299988e-02 -1.172163933515548706e-01 -8.196514248847961426e-01
3.242707252502441406e-01 4.177148640155792236e-01 3.818061947822570801e-01
-3.163816034793853760e-01 6.191724538803100586e-01 -2.929304242134094238e-01
-2.325775325298309326e-01 4.057751297950744629e-01 4.515908062458038330e-01
4.318161904811859131e-01 8.739104866981506348e-02 -1.198438033461570740e-01
-4.078364968299865723e-01 6.193549633026123047e-01 -1.764792054891586304e-01
4.527671337127685547e-01 -2.054007947444915771e-01 -6.014513224363327026e-02
-4.262036681175231934e-01 4.339618980884552002e-01 2.266612499952316284e-01
4.516686797142028809e-01 4.138414263725280762e-01 -6.848485022783279419e-02
-4.468322396278381348e-01 8.608032464981079102e-01 -1.079677045345306396e-02
3.857637643814086914e-01 -6.529264450073242188e-01 -2.103323340415954590e-01
-4.605468809604644775e-01 4.722105860710144043e-01 2.932934788987040520e-03
-3.447581231594085693e-01 2.610722780227661133e-01 -2.630907297134399414e-01
1.726628690958023071e-01 -6.946903467178344727e-01 -8.951602131128311157e-02
1.406575739383697510e-01 2.001782134175300598e-02 4.898855984210968018e-01
-4.065734744071960449e-01 -1.240206882357597351e-02 -1.795286387205123901e-01
4.517127871513366699e-01 7.873314619064331055e-01 1.626753211021423340e-01
-3.321898356080055237e-02 -3.598115146160125732e-01 -5.083704590797424316e-01
2.585031092166900635e-01 -2.705700099468231201e-01 4.322751462459564209e-01
1.283584237098693848e-01 3.995527625083923340e-01 -4.004544913768768311e-01
3.545933067798614502e-01 5.863740444183349609e-01 -2.509540319442749023e-01
3.445315062999725342e-01 -1.067595779895782471e-01 -2.640666663646697998e-01
-8.158116042613983154e-02 2.626918256282806396e-01 -4.086096286773681641e-01
-2.924514934420585632e-03 6.351518630981445312e-01 5.134909152984619141e-01
-3.983494639396667480e-01 7.358495593070983887e-01 -1.932520419359207153e-01
-1.924917995929718018e-01 3.341691792011260986e-01 4.681944847106933594e-01
-4.579139053821563721e-01 2.458545565605163574e-01 1.115940883755683899e-01
-4.434128757566213608e-03 2.583334147930145264e-01 -8.332066535949707031e-01
2.697478532791137695e-01 4.668255150318145752e-01 4.236461222171783447e-01
-4.340353906154632568e-01 8.556790351867675781e-01 2.077524214982986450e-01
4.547531902790069580e-01 1.710074692964553833e-01 -4.506641998887062073e-02
4.333441555500030518e-01 5.700012445449829102e-01 2.106812596321105957e-01
1.901814192533493042e-01 5.417069047689437866e-02 -3.748472034931182861e-01
-4.409084022045135498e-01 7.311676740646362305e-01 1.911582648754119873e-01
3.588994145393371582e-01 3.665187954902648926e-01 3.398699760437011719e-01
1.978549174964427948e-02 5.538612604141235352e-02 -4.168156981468200684e-01
-1.541742384433746338e-01 1.275889277458190918e-01 -3.895402848720550537e-01
-1.187846586108207703e-01 -5.963677912950515747e-02 -4.037114381790161133e-01
-1.899275034666061401e-01 7.026492953300476074e-01 -3.747311830520629883e-01
3.891438245773315430e-01 -3.086627274751663208e-02 3.004550933837890625e-01
-4.486384093761444092e-01 6.745250225067138672e-01 -7.796944677829742432e-02
-1.151800304651260376e-01 6.264277100563049316e-01 4.987114965915679932e-01
2.322454750537872314e-02 -3.771232068538665771e-01 -4.097340106964111328e-01
1.232441142201423645e-01 8.420968651771545410e-01 -4.025729000568389893e-01
4.610719680786132812e-01 4.129772484302520752e-01 9.161844104528427124e-02
-4.489304423332214355e-01 5.830196738243103027e-01 -7.726442068815231323e-02
-2.208436429500579834e-01 1.460366994142532349e-01 -3.619255721569061279e-01
-3.264002129435539246e-02 -3.352904915809631348e-01 -5.929657220840454102e-01
2.081560790538787842e-01 -5.628954172134399414e-01 -3.674020469188690186e-01
4.622040688991546631e-01 -7.692615687847137451e-02 1.150218769907951355e-02
-1.744768768548965454e-01 4.885887801647186279e-01 4.756563007831573486e-01
4.212942719459533691e-01 -5.129429101943969727e-01 -1.452460736036300659e-01
1.752422451972961426e-01 1.402280181646347046e-01 -3.810350596904754639e-01
4.323396980762481689e-01 -2.622761130332946777e-01 2.131063193082809448e-01
-3.513246774673461914e-01 7.538762092590332031e-01 -2.545334100723266602e-01
-3.863569200038909912e-01 1.097155734896659851e-01 -2.088803648948669434e-01
6.631454825401306152e-02 5.562524795532226562e-01 -4.106898009777069092e-01
4.272933602333068848e-01 3.586013019084930420e-01 -1.307628899812698364e-01
-6.681920029222965240e-03 8.400456905364990234e-01 -4.184708297252655029e-01
-4.341993331909179688e-01 5.154439210891723633e-01 -1.128303110599517822e-01
1.553184688091278076e-01 6.579700112342834473e-01 4.838130474090576172e-01
4.661641120910644531e-01 5.428794622421264648e-01 4.156775772571563721e-02
-4.404321312904357910e-01 4.336630105972290039e-01 1.923081427812576294e-01
-4.550278186798095703e-01 2.059820145368576050e-01 -3.899301216006278992e-02
1.063974350690841675e-01 2.274782061576843262e-01 -8.456672430038452148e-01
4.151502251625061035e-01 4.565778672695159912e-01 2.546063959598541260e-01
4.609943330287933350e-01 4.477332532405853271e-01 2.317583886906504631e-03
2.785471379756927490e-01 5.030660033226013184e-01 -3.223672211170196533e-01
-1.036743819713592529e-01 8.608032464981079102e-01 4.838927388191223145e-01
4.632262289524078369e-01 -4.323571324348449707e-01 7.526271790266036987e-02
3.260446339845657349e-02 4.370746612548828125e-01 -7.066581249237060547e-01
1.284524202346801758e-01 -6.946903467178344727e-01 -1.822725832462310791e-01
-4.190146923065185547e-01 4.156199097633361816e-01 -1.494912952184677124e-01
-4.638729095458984375e-01 2.196166366338729858e-01 2.819942310452461243e-02
-1.110594496130943298e-01 6.257361173629760742e-02 -4.047285318374633789e-01
2.807288169860839844e-01 7.063410282135009766e-01 4.152195155620574951e-01
-4.361341595649719238e-01 3.615797758102416992e-01 2.026851922273635864e-01
3.462227284908294678e-01 -6.946903467178344727e-01 3.071306049823760986e-01
-3.997704982757568359e-01 3.921559453010559082e-01 2.859279513359069824e-01
-4.609744250774383545e-01 3.380910754203796387e-01 8.834446966648101807e-02
-1.026792153716087341e-01 -3.764749765396118164e-01 -4.415071010589599609e-01
-2.778424918651580811e-01 4.042870700359344482e-01 -3.225021362304687500e-01
-2.752373181283473969e-02 5.466668009757995605e-01 -4.562400877475738525e-01
-3.306235969066619873e-01 -3.485866487026214600e-01 -2.815104424953460693e-01
4.477144479751586914e-01 -1.913116872310638428e-01 1.759874820709228516e-01
4.558605551719665527e-01 8.171638846397399902e-01 1.311846524477005005e-01
-8.279594033956527710e-02 -6.946903467178344727e-01 -2.283607870340347290e-01
-3.111417889595031738e-01 4.958732426166534424e-01 -2.969510555267333984e-01
3.439746797084808350e-01 -5.739349126815795898e-01 3.593200445175170898e-01
2.975991368293762207e-01 4.325832724571228027e-01 4.022735059261322021e-01
3.797317743301391602e-01 -3.358446359634399414e-01 3.127210140228271484e-01
-3.228254616260528564e-02 4.868587255477905273e-01 -4.151002466678619385e-01
1.000302955508232117e-01 3.668901277706027031e-03 5.007763504981994629e-01
-2.835353612899780273e-01 7.574288845062255859e-01 4.126605391502380371e-01
-2.833172678947448730e-01 2.568718492984771729e-01 4.128278791904449463e-01
-1.889535635709762573e-01 3.519669473171234131e-01 -3.751345574855804443e-01
6.754167377948760986e-02 -5.653221607208251953e-01 -4.105282723903656006e-01
-1.116899657063186169e-03 -2.843841314315795898e-01 -4.192035198211669922e-01
-3.458201885223388672e-01 -3.019140660762786865e-01 -2.617067098617553711e-01
-2.816810607910156250e-01 -4.584821462631225586e-01 -3.195567429065704346e-01
-1.148608624935150146e-01 -6.946903467178344727e-01 -3.398417830467224121e-01
1.236633360385894775e-01 -5.188289284706115723e-01 -4.023992419242858887e-01
-2.179987914860248566e-02 6.884835958480834961e-01 5.110058188438415527e-01
-2.400887012481689453e-02 -1.813792288303375244e-01 -7.807590365409851074e-01
3.018123283982276917e-02 5.845342278480529785e-01 5.099723935127258301e-01
4.491827785968780518e-01 4.643749892711639404e-01 -7.791692763566970825e-02
2.882725298404693604e-01 -5.454427376389503479e-02 -3.149038851261138916e-01
1.172476932406425476e-01 7.640698552131652832e-01 4.985095262527465820e-01
-3.615686595439910889e-01 8.608032464981079102e-01 -2.296330481767654419e-01
3.070732951164245605e-01 -1.993601620197296143e-01 3.950031995773315430e-01
3.223177194595336914e-01 1.966855227947235107e-01 -2.887773513793945312e-01
-3.074257671833038330e-01 7.094137668609619141e-01 -2.998023927211761475e-01
3.733176290988922119e-01 4.872241616249084473e-01 3.210799992084503174e-01
3.993773460388183594e-01 4.936547875404357910e-01 -1.925909370183944702e-01
6.093864142894744873e-02 5.040279030799865723e-01 -6.040931344032287598e-01
1.542996913194656372e-01 4.683440923690795898e-01 4.842349886894226074e-01
-4.649315774440765381e-01 5.730885863304138184e-01 5.828388035297393799e-02
1.716119349002838135e-01 6.961665749549865723e-01 4.770642518997192383e-01
4.143464267253875732e-01 1.593664586544036865e-01 2.565469145774841309e-01
1.338090151548385620e-01 5.753935575485229492e-01 4.927223026752471924e-01
3.454282879829406738e-01 6.964037418365478516e-01 3.574256896972656250e-01
-4.655210077762603760e-01 4.009186625480651855e-01 5.380610004067420959e-02
3.726050853729248047e-01 -1.451671719551086426e-01 -2.274808734655380249e-01
-8.250006288290023804e-02 1.238752231001853943e-01 -8.653258681297302246e-01
4.510537981986999512e-01 2.166627645492553711e-01 1.676784604787826538e-01
-4.373109340667724609e-01 6.146151423454284668e-01 1.998439729213714600e-01
4.438728690147399902e-01 8.608032464981079102e-01 4.208165407180786133e-02
3.474609255790710449e-01 8.228854089975357056e-02 -2.602490186691284180e-01
-1.121886670589447021e-01 3.412838876247406006e-01 -4.045798778533935547e-01
5.864614993333816528e-02 -2.806473076343536377e-01 -6.851852536201477051e-01
1.098828911781311035e-01 -3.455598056316375732e-01 -5.705783367156982422e-01
4.642886519432067871e-01 2.343451045453548431e-02 6.719665229320526123e-02
1.538613140583038330e-01 2.073017656803131104e-01 4.844166338443756104e-01
4.579390585422515869e-01 1.421253532171249390e-01 1.154040396213531494e-01
2.503449618816375732e-01 -5.700057744979858398e-01 -3.440097868442535400e-01
4.540184438228607178e-01 -4.894379079341888428e-01 1.451702862977981567e-01
3.319188654422760010e-01 4.973383545875549316e-01 3.750313222408294678e-01
3.951424956321716309e-01 1.811979413032531738e-01 2.926375567913055420e-01
-4.325875341892242432e-01 6.407361030578613281e-01 -1.167217791080474854e-01
-1.204206272959709167e-01 5.984823107719421387e-01 -4.034960269927978516e-01
-2.531969547271728516e-01 4.708418846130371094e-01 -3.414130508899688721e-01
4.526724219322204590e-01 3.885608538985252380e-02 -6.086433678865432739e-02
3.567817434668540955e-02 3.843849599361419678e-01 -7.580892443656921387e-01
4.119260311126708984e-01 7.560968995094299316e-01 -1.678631305694580078e-01
-3.641938418149948120e-02 5.157127380371093750e-01 5.090810656547546387e-01
-4.103068113327026367e-01 2.324485778808593750e-01 -1.705150306224822998e-01
2.202890627086162567e-02 3.832131624221801758e-02 5.110456943511962891e-01
-8.167038857936859131e-02 -5.530127882957458496e-01 -4.085978567600250244e-01
2.678100168704986572e-01 -6.946903467178344727e-01 1.641178727149963379e-01
-4.147266745567321777e-01 7.627501487731933594e-01 2.543711960315704346e-01
3.112300336360931396e-01 -4.574204683303833008e-01 3.918133676052093506e-01
2.991649508476257324e-01 3.383647203445434570e-01 -3.065449595451354980e-01
4.033801555633544922e-01 6.873752474784851074e-01 -1.873744577169418335e-01
4.094080328941345215e-01 -6.154479831457138062e-02 -1.739421486854553223e-01
7.186579704284667969e-02 -6.946903467178344727e-01 -1.771360337734222412e-01
-2.942291786894202232e-03 -3.933852165937423706e-02 -4.189631640911102295e-01
4.126562178134918213e-01 6.524458527565002441e-01 2.606275975704193115e-01
4.634784758090972900e-01 -1.844428777694702148e-01 7.334768027067184448e-02
1.128074079751968384e-01 6.372252106666564941e-02 -4.045686721801757812e-01
4.206844866275787354e-01 4.763152003288269043e-01 -1.467182040214538574e-01
-4.122138917446136475e-01 3.163284361362457275e-01 -1.659107506275177002e-01
4.651567935943603516e-01 4.762810170650482178e-01 6.060547381639480591e-02
-3.835556283593177795e-02 -6.946903467178344727e-01 -3.360146284103393555e-01
-3.657971918582916260e-01 2.397338151931762695e-01 -2.356732189655303955e-01
6.372127216309309006e-03 4.627442061901092529e-01 -4.185816347599029541e-01
-3.322047591209411621e-01 7.733249664306640625e-01 -2.794499397277832031e-01
4.223654866218566895e-01 -4.388020634651184082e-01 -1.426599174737930298e-01
-2.283500730991363525e-01 4.410617947578430176e-01 4.533418118953704834e-01
3.541517555713653564e-01 6.494710445404052734e-01 3.460571765899658203e-01
4.207969009876251221e-01 -3.014642596244812012e-01 2.409737706184387207e-01
-2.019809037446975708e-01 -4.894800484180450439e-01 -3.697385787963867188e-01
1.079868301749229431e-01 -1.918086707592010498e-01 -7.734631299972534180e-01
-2.046791017055511475e-01 -3.304596841335296631e-01 -3.686210215091705322e-01
2.526076138019561768e-01 7.530272006988525391e-01 4.367992579936981201e-01
4.519274234771728516e-01 -3.123582303524017334e-01 -6.652060896158218384e-02
4.388635754585266113e-01 3.318554759025573730e-01 1.973558664321899414e-01
3.561872243881225586e-01 -1.578885912895202637e-01 3.434045314788818359e-01
-6.871069967746734619e-02 -1.967196464538574219e-01 -7.687483429908752441e-01
-8.069268614053726196e-02 5.967081785202026367e-01 -4.087266027927398682e-01
2.009299993515014648e-01 -6.946903467178344727e-01 -1.221032440662384033e-01
4.574370980262756348e-01 8.149250149726867676e-01 -2.468982897698879242e-02
3.469819724559783936e-01 -5.141861438751220703e-01 3.554008901119232178e-01
5.758929625153541565e-02 6.232081651687622070e-01 -4.118385612964630127e-01
4.230611622333526611e-01 -6.070086359977722168e-02 2.355072349309921265e-01
-4.400258362293243408e-01 1.764050573110580444e-01 -9.876314550638198853e-02
3.617663681507110596e-01 -2.412308603525161743e-01 3.361336886882781982e-01
-4.625437855720520020e-01 6.663492918014526367e-01 7.642278820276260376e-02
1.257583945989608765e-01 -2.220719121396541595e-02 4.960569143295288086e-01
1.922341436147689819e-01 -1.162676587700843811e-01 4.685224592685699463e-01
1.950224041938781738e-01 -6.946903467178344727e-01 -1.575372964143753052e-01
1.976865082979202271e-01 7.100103497505187988e-01 -3.717385828495025635e-01
-1.592459678649902344e-01 -3.787165507674217224e-02 -3.874395489692687988e-01
