-2.035331279039382935e-01 -4.349816441535949707e-01 -3.803023695945739746e-02
-2.207665741443634033e-01 -4.348774254322052002e-01 1.357078552246093750e-03
-9.273698925971984863e-02 -4.317556917667388916e-01 -2.729577422142028809e-01
-1.343419849872589111e-01 -4.302846491336822510e-01 -2.232717275619506836e-01
-1.693432331085205078e-01 -4.266213774681091309e-01 -1.754852235317230225e-01
-1.920426785945892334e-01 -4.273889660835266113e-01 -1.448803842067718506e-01
-2.076904177665710449e-01 -4.297800660133361816e-01 -1.212817132472991943e-01
-2.211825251579284668e-01 -4.316821396350860596e-01 -1.005790233612060547e-01
-2.345674037933349609e-01 -4.338104128837585449e-01 -8.233624696731567383e-02
-2.503472566604614258e-01 -4.354707002639770508e-01 -5.110087990760803223e-02
-1.393946409225463867e-01 -4.304313063621520996e-01 -3.120014667510986328e-01
-1.826948076486587524e-01 -4.295510649681091309e-01 -2.653947472572326660e-01
-2.166818380355834961e-01 -4.294960498809814453e-01 -2.242009043693542480e-01
-2.385514676570892334e-01 -4.275146424770355225e-01 -1.864454746246337891e-01
-2.551459670066833496e-01 -4.274971783161163330e-01 -1.615807116031646729e-01
-2.641731500625610352e-01 -4.296081364154815674e-01 -1.404938995838165283e-01
-2.748045325279235840e-01 -4.313945770263671875e-01 -1.234297156333923340e-01
-2.909751534461975098e-01 -4.334431290626525879e-01 -1.023354232311248779e-01
3.677132725715637207e-01 -5.189444422721862793e-01 9.512038528919219971e-02
3.391310274600982666e-01 -5.195257067680358887e-01 1.488729566335678101e-01
3.105301260948181152e-01 -5.176273584365844727e-01 1.872870028018951416e-01
2.878616452217102051e-01 -5.180921554565429688e-01 2.152304947376251221e-01
2.762298882007598877e-01 -5.184138417243957520e-01 2.480424940586090088e-01
2.665823400020599365e-01 -5.186327695846557617e-01 2.879129648208618164e-01
2.434316426515579224e-01 -5.201131105422973633e-01 3.216626942157745361e-01
2.207961976528167725e-01 -5.130267143249511719e-01 3.235292434692382812e-01
3.404572308063507080e-01 -5.204597711563110352e-01 6.264860928058624268e-02
3.063156604766845703e-01 -5.206943154335021973e-01 1.222274079918861389e-01
2.756837904453277588e-01 -5.198890566825866699e-01 1.680106371641159058e-01
2.470484077930450439e-01 -5.184960365295410156e-01 2.013916075229644775e-01
2.290345132350921631e-01 -5.186511874198913574e-01 2.329778820276260376e-01
2.099563628435134888e-01 -5.193940401077270508e-01 2.676690220832824707e-01
1.877994537353515625e-01 -5.198007225990295410e-01 3.081099987030029297e-01
1.620704382658004761e-01 -5.193753838539123535e-01 3.424924314022064209e-01
3.231705427169799805e-01 -5.210140943527221680e-01 3.231061995029449463e-02
2.864089012145996094e-01 -5.211628675460815430e-01 9.267313778400421143e-02
2.470973879098892212e-01 -5.210586190223693848e-01 1.428819894790649414e-01
2.147722691297531128e-01 -5.205059647560119629e-01 1.843367516994476318e-01
1.899484843015670776e-01 -5.187295079231262207e-01 2.119958996772766113e-01
1.688672006130218506e-01 -5.190170407295227051e-01 2.499829530715942383e-01
1.443524509668350220e-01 -5.196537375450134277e-01 2.874757051467895508e-01
1.182761341333389282e-01 -5.194172263145446777e-01 3.247220814228057861e-01
3.034956157207489014e-01 -5.208844542503356934e-01 -4.718735814094543457e-03
2.613792419433593750e-01 -5.212467908859252930e-01 6.046743690967559814e-02
2.213917225599288940e-01 -5.215987563133239746e-01 1.144278645515441895e-01
1.906579285860061646e-01 -5.211433768272399902e-01 1.563224792480468750e-01
1.682626903057098389e-01 -5.201130509376525879e-01 1.917393803596496582e-01
1.440854221582412720e-01 -5.179659128189086914e-01 2.243941277265548706e-01
1.095280647277832031e-01 -5.189814567565917969e-01 2.597937285900115967e-01
7.366667687892913818e-02 -5.195480585098266602e-01 2.971472442150115967e-01
2.813017666339874268e-01 -5.211884975433349609e-01 -4.419648647308349609e-02
2.361486703157424927e-01 -5.212888717651367188e-01 1.738883554935455322e-02
1.944812238216400146e-01 -5.213545560836791992e-01 7.630728185176849365e-02
1.675619482994079590e-01 -5.212670564651489258e-01 1.254320293664932251e-01
1.391737163066864014e-01 -5.208632349967956543e-01 1.640336662530899048e-01
1.076468974351882935e-01 -5.194516777992248535e-01 1.982790231704711914e-01
6.846614181995391846e-02 -5.178666114807128906e-01 2.315961420536041260e-01
2.849397063255310059e-02 -5.190368890762329102e-01 2.690068483352661133e-01
2.526048719882965088e-01 -5.210644602775573730e-01 -8.057501912117004395e-02
2.072525173425674438e-01 -5.218049287796020508e-01 -1.943907141685485840e-02
1.709236949682235718e-01 -5.212173461914062500e-01 3.359790146350860596e-02
1.378015875816345215e-01 -5.212630033493041992e-01 8.208993077278137207e-02
1.023260354995727539e-01 -5.217909812927246094e-01 1.287972331047058105e-01
6.789296865463256836e-02 -5.212415456771850586e-01 1.673945784568786621e-01
2.886863052845001221e-02 -5.192254185676574707e-01 2.051748931407928467e-01
-8.370801806449890137e-03 -5.187829732894897461e-01 2.396521270275115967e-01
2.163529694080352783e-01 -5.194274783134460449e-01 -1.095608770847320557e-01
1.736720800399780273e-01 -5.213828086853027344e-01 -5.743759870529174805e-02
1.353912949562072754e-01 -5.216153860092163086e-01 -7.137700915336608887e-03
9.886261820793151855e-02 -5.211875438690185547e-01 4.147909581661224365e-02
6.142963469028472900e-02 -5.215057134628295898e-01 8.538486063480377197e-02
2.525167167186737061e-02 -5.216794013977050781e-01 1.338599026203155518e-01
-1.074326038360595703e-02 -5.209972858428955078e-01 1.754795759916305542e-01
-4.816150665283203125e-02 -5.185964107513427734e-01 2.141996324062347412e-01
1.686771959066390991e-01 -5.171731114387512207e-01 -1.386439800262451172e-01
1.283350735902786255e-01 -5.193934440612792969e-01 -9.275928139686584473e-02
8.798599243164062500e-02 -5.198099613189697266e-01 -4.899755120277404785e-02
4.648084938526153564e-02 -5.199310779571533203e-01 -1.843824982643127441e-03
9.784772992134094238e-03 -5.190550088882446289e-01 4.870995879173278809e-02
-2.350655198097229004e-02 -5.196105837821960449e-01 9.892918169498443604e-02
-6.675633788108825684e-02 -5.200012326240539551e-01 1.418214440345764160e-01
-1.008004546165466309e-01 -5.194909572601318359e-01 1.845148056745529175e-01
-1.031265258789062500e-01 4.785217642784118652e-01 5.541180372238159180e-01
-1.161251664161682129e-01 4.797349572181701660e-01 5.532152056694030762e-01
-1.240338981151580811e-01 4.804979860782623291e-01 5.523553490638732910e-01
-1.272248774766921997e-01 4.812886714935302734e-01 5.520212650299072266e-01
-1.294192522764205933e-01 4.821586906909942627e-01 5.517908334732055664e-01
-1.304572969675064087e-01 4.829798936843872070e-01 5.517028570175170898e-01
-1.328635066747665405e-01 4.843465387821197510e-01 5.514739751815795898e-01
-1.371785253286361694e-01 4.866375923156738281e-01 5.509211421012878418e-01
-1.193509548902511597e-01 4.779896140098571777e-01 5.524103045463562012e-01
-1.288432776927947998e-01 4.792972207069396973e-01 5.517013669013977051e-01
-1.351381540298461914e-01 4.802201092243194580e-01 5.509442090988159180e-01
-1.377389580011367798e-01 4.811166524887084961e-01 5.505520105361938477e-01
-1.385807245969772339e-01 4.819976985454559326e-01 5.504361391067504883e-01
-1.390621364116668701e-01 4.826476275920867920e-01 5.503723025321960449e-01
-1.412323713302612305e-01 4.835618138313293457e-01 5.500379800796508789e-01
-1.455290764570236206e-01 4.853829443454742432e-01 5.494254231452941895e-01
-1.281409263610839844e-01 4.772344529628753662e-01 5.509781837463378906e-01
-1.361509710550308228e-01 4.785670638084411621e-01 5.504565238952636719e-01
-1.408133804798126221e-01 4.801031351089477539e-01 5.498368144035339355e-01
-1.423535346984863281e-01 4.809955954551696777e-01 5.496199727058410645e-01
-1.439299434423446655e-01 4.814920425415039062e-01 5.493720769882202148e-01
-1.443551331758499146e-01 4.820389151573181152e-01 5.493834614753723145e-01
-1.457004398107528687e-01 4.830875992774963379e-01 5.492382049560546875e-01
-1.492129862308502197e-01 4.851530790328979492e-01 5.485284924507141113e-01
-1.330704838037490845e-01 4.761507511138916016e-01 5.500971674919128418e-01
-1.399422585964202881e-01 4.783211648464202881e-01 5.496140122413635254e-01
-1.421947181224822998e-01 4.797650277614593506e-01 5.494540333747863770e-01
-1.437651664018630981e-01 4.808636009693145752e-01 5.493003129959106445e-01
-1.448871493339538574e-01 4.815124273300170898e-01 5.491532087326049805e-01
-1.455833017826080322e-01 4.819914698600769043e-01 5.489408969879150391e-01
-1.468852162361145020e-01 4.828135371208190918e-01 5.488231778144836426e-01
-1.505824774503707886e-01 4.848399162292480469e-01 5.481048226356506348e-01
-1.339308172464370728e-01 4.750462174415588379e-01 5.497218966484069824e-01
-1.398089826107025146e-01 4.777221679687500000e-01 5.493363738059997559e-01
-1.425320655107498169e-01 4.797345101833343506e-01 5.493234395980834961e-01
-1.443236172199249268e-01 4.812536239624023438e-01 5.492096543312072754e-01
-1.451422721147537231e-01 4.821209907531738281e-01 5.490465760231018066e-01
-1.459543108940124512e-01 4.827721714973449707e-01 5.488674044609069824e-01
-1.468831151723861694e-01 4.831492006778717041e-01 5.486803650856018066e-01
-1.509923040866851807e-01 4.847732484340667725e-01 5.479339957237243652e-01
-1.350054591894149780e-01 4.735155403614044189e-01 5.490568876266479492e-01
-1.416314244270324707e-01 4.768427610397338867e-01 5.487627387046813965e-01
-1.447666287422180176e-01 4.795675575733184814e-01 5.488240718841552734e-01
-1.461911052465438843e-01 4.814178049564361572e-01 5.486302375793457031e-01
-1.468030363321304321e-01 4.826456904411315918e-01 5.485680103302001953e-01
-1.474343240261077881e-01 4.833552539348602295e-01 5.484490394592285156e-01
-1.478684246540069580e-01 4.837958812713623047e-01 5.483668446540832520e-01
-1.513756066560745239e-01 4.850768446922302246e-01 5.477499961853027344e-01
-1.413207501173019409e-01 4.695028662681579590e-01 5.473729968070983887e-01
-1.490575075149536133e-01 4.752680659294128418e-01 5.470992922782897949e-01
-1.524592936038970947e-01 4.786686301231384277e-01 5.469684600830078125e-01
-1.535097658634185791e-01 4.811425805091857910e-01 5.471722483634948730e-01
-1.532430052757263184e-01 4.828571677207946777e-01 5.473774075508117676e-01
-1.534088104963302612e-01 4.838377535343170166e-01 5.474313497543334961e-01
-1.532880812883377075e-01 4.844196438789367676e-01 5.474100112915039062e-01
-1.570571064949035645e-01 4.859516620635986328e-01 5.467068552970886230e-01
-1.562873274087905884e-01 4.577613174915313721e-01 5.448808073997497559e-01
-1.637684553861618042e-01 4.716968834400177002e-01 5.444141030311584473e-01
-1.641393899917602539e-01 4.771311879158020020e-01 5.448564291000366211e-01
-1.638687252998352051e-01 4.802715778350830078e-01 5.451235771179199219e-01
-1.633824557065963745e-01 4.824471175670623779e-01 5.455424785614013672e-01
-1.626934409141540527e-01 4.843662977218627930e-01 5.459411740303039551e-01
-1.630321294069290161e-01 4.853629767894744873e-01 5.458926558494567871e-01
-1.664115190505981445e-01 4.870264530181884766e-01 5.451508760452270508e-01
3.321392536163330078e-01 5.519986748695373535e-01 4.518215060234069824e-01
3.199586272239685059e-01 5.532924532890319824e-01 4.585153460502624512e-01
3.129301071166992188e-01 5.543869137763977051e-01 4.629453420639038086e-01
3.084276318550109863e-01 5.551632642745971680e-01 4.660718739032745361e-01
3.060438334941864014e-01 5.551624298095703125e-01 4.674478471279144287e-01
3.035838603973388672e-01 5.549917221069335938e-01 4.685792326927185059e-01
2.993103563785552979e-01 5.563076138496398926e-01 4.701555967330932617e-01
2.915534377098083496e-01 5.566271543502807617e-01 4.726863205432891846e-01
3.211035430431365967e-01 5.505852103233337402e-01 4.563648402690887451e-01
3.124041855335235596e-01 5.530716180801391602e-01 4.624523818492889404e-01
3.050538301467895508e-01 5.540481805801391602e-01 4.676069319248199463e-01
3.005512058734893799e-01 5.542916059494018555e-01 4.703554213047027588e-01
2.985233068466186523e-01 5.543434619903564453e-01 4.718345105648040771e-01
2.979719042778015137e-01 5.550888180732727051e-01 4.722692072391510010e-01
2.946738004684448242e-01 5.560843348503112793e-01 4.736791253089904785e-01
2.883756160736083984e-01 5.584432482719421387e-01 4.761285185813903809e-01
3.153293132781982422e-01 5.466704368591308594e-01 4.589378833770751953e-01
3.057104945182800293e-01 5.511419773101806641e-01 4.663882255554199219e-01
2.981849908828735352e-01 5.522670149803161621e-01 4.724291563034057617e-01
2.953671216964721680e-01 5.522015690803527832e-01 4.743793308734893799e-01
2.952784299850463867e-01 5.528573989868164062e-01 4.743536412715911865e-01
2.946379184722900391e-01 5.542334318161010742e-01 4.747499227523803711e-01
2.917168140411376953e-01 5.557059645652770996e-01 4.765617549419403076e-01
2.853790521621704102e-01 5.576898455619812012e-01 4.793304204940795898e-01
3.122443556785583496e-01 5.416480898857116699e-01 4.626243412494659424e-01
3.012645542621612549e-01 5.474654436111450195e-01 4.697173833847045898e-01
2.952488660812377930e-01 5.505681037902832031e-01 4.748287200927734375e-01
2.941242158412933350e-01 5.511028766632080078e-01 4.754960238933563232e-01
2.938643693923950195e-01 5.517348647117614746e-01 4.755688309669494629e-01
2.932345867156982422e-01 5.532283782958984375e-01 4.758868217468261719e-01
2.904500365257263184e-01 5.556759238243103027e-01 4.775997102260589600e-01
2.847775220870971680e-01 5.572012066841125488e-01 4.803061783313751221e-01
3.084706366062164307e-01 5.352015495300292969e-01 4.672685265541076660e-01
2.990985214710235596e-01 5.420180559158325195e-01 4.724400639533996582e-01
2.939377427101135254e-01 5.480903387069702148e-01 4.757979512214660645e-01
2.933218181133270264e-01 5.500115156173706055e-01 4.762833118438720703e-01
2.930839359760284424e-01 5.508373975753784180e-01 4.763101339340209961e-01
2.921213805675506592e-01 5.521778464317321777e-01 4.768375456333160400e-01
2.900974154472351074e-01 5.545316934585571289e-01 4.780021309852600098e-01
2.845148146152496338e-01 5.568796396255493164e-01 4.807715415954589844e-01
3.041057586669921875e-01 5.237092971801757812e-01 4.728778898715972900e-01
2.951466143131256104e-01 5.376304984092712402e-01 4.764462113380432129e-01
2.902157902717590332e-01 5.430983304977416992e-01 4.790202379226684570e-01
2.895466089248657227e-01 5.478424429893493652e-01 4.792003929615020752e-01
2.898771166801452637e-01 5.497716665267944336e-01 4.787690639495849609e-01
2.894597351551055908e-01 5.511128902435302734e-01 4.789040684700012207e-01
2.876560091972351074e-01 5.531868934631347656e-01 4.799512624740600586e-01
2.821433842182159424e-01 5.567843914031982422e-01 4.827840626239776611e-01
2.978152334690093994e-01 5.071719288825988770e-01 4.782046079635620117e-01
2.895905971527099609e-01 5.283744931221008301e-01 4.835691750049591064e-01
2.842800915241241455e-01 5.393179059028625488e-01 4.846407175064086914e-01
2.821178436279296875e-01 5.433804392814636230e-01 4.852004945278167725e-01
2.833656072616577148e-01 5.476016998291015625e-01 4.832958579063415527e-01
2.838371694087982178e-01 5.497334599494934082e-01 4.830293655395507812e-01
2.819126844406127930e-01 5.516778826713562012e-01 4.841162860393524170e-01
2.762815654277801514e-01 5.549460649490356445e-01 4.859401285648345947e-01
2.866397500038146973e-01 4.800369739532470703e-01 4.850532412528991699e-01
2.779865860939025879e-01 5.152384638786315918e-01 4.923658370971679688e-01
2.724509239196777344e-01 5.326521396636962891e-01 4.938326478004455566e-01
2.695763111114501953e-01 5.409866571426391602e-01 4.928546547889709473e-01
2.696681022644042969e-01 5.442085266113281250e-01 4.910327792167663574e-01
2.709855139255523682e-01 5.473704338073730469e-01 4.892173111438751221e-01
2.693328857421875000e-01 5.496021509170532227e-01 4.890865683555603027e-01
2.618936896324157715e-01 5.530277490615844727e-01 4.911214709281921387e-01
1.567561179399490356e-01 -4.357180595397949219e-01 -3.030884265899658203e-01
9.642584621906280518e-02 -4.320245981216430664e-01 -2.579616010189056396e-01
3.786160051822662354e-02 -4.295885562896728516e-01 -2.273377031087875366e-01
-6.281316280364990234e-03 -4.284017682075500488e-01 -2.008729577064514160e-01
-4.318547248840332031e-02 -4.278678894042968750e-01 -1.804971396923065186e-01
-8.215671777725219727e-02 -4.282792806625366211e-01 -1.506136804819107056e-01
-1.206941753625869751e-01 -4.288882017135620117e-01 -1.180040389299392700e-01
-1.630236804485321045e-01 -4.294986724853515625e-01 -8.349925279617309570e-02
1.121734380722045898e-01 -4.462345540523529053e-01 -3.519531488418579102e-01
3.864039480686187744e-02 -4.316467046737670898e-01 -3.007152080535888672e-01
-1.454482972621917725e-02 -4.295230209827423096e-01 -2.663644552230834961e-01
-6.311237812042236328e-02 -4.285446405410766602e-01 -2.408731877803802490e-01
-1.071798801422119141e-01 -4.286082983016967773e-01 -2.151882052421569824e-01
-1.391388475894927979e-01 -4.294563233852386475e-01 -1.816635578870773315e-01
-1.685081422328948975e-01 -4.303009510040283203e-01 -1.478970199823379517e-01
-2.055875957012176514e-01 -4.301924705505371094e-01 -1.082364320755004883e-01
7.496951520442962646e-02 -4.911523163318634033e-01 -3.444741666316986084e-01
1.991733908653259277e-03 -4.359967410564422607e-01 -3.461566269397735596e-01
-6.021375954151153564e-02 -4.296841323375701904e-01 -3.026080131530761719e-01
-1.083336248993873596e-01 -4.286299943923950195e-01 -2.698764204978942871e-01
-1.402146816253662109e-01 -4.292740225791931152e-01 -2.430862188339233398e-01
-1.700591742992401123e-01 -4.298657774925231934e-01 -2.110504508018493652e-01
-1.963289827108383179e-01 -4.303008615970611572e-01 -1.766406595706939697e-01
-2.331760823726654053e-01 -4.297381043434143066e-01 -1.346787959337234497e-01
3.898982703685760498e-02 -5.234826207160949707e-01 -3.354606628417968750e-01
-2.140301465988159180e-02 -4.557220935821533203e-01 -3.688767254352569580e-01
-9.247606992721557617e-02 -4.308019876480102539e-01 -3.357873558998107910e-01
-1.374082565307617188e-01 -4.294275939464569092e-01 -2.972553372383117676e-01
-1.639784276485443115e-01 -4.295439422130584717e-01 -2.664170563220977783e-01
-1.900307834148406982e-01 -4.305343925952911377e-01 -2.335765659809112549e-01
-2.185465842485427856e-01 -4.308764636516571045e-01 -1.978051215410232544e-01
-2.526984214782714844e-01 -4.289621114730834961e-01 -1.585753411054611206e-01
6.748557090759277344e-03 -5.277504920959472656e-01 -3.696021139621734619e-01
-6.381023675203323364e-02 -5.119745731353759766e-01 -3.326542079448699951e-01
-1.107237786054611206e-01 -4.426778554916381836e-01 -3.730819821357727051e-01
-1.555979400873184204e-01 -4.307979941368103027e-01 -3.244403898715972900e-01
-1.834239661693572998e-01 -4.300616681575775146e-01 -2.910150587558746338e-01
-2.074615508317947388e-01 -4.309927523136138916e-01 -2.535483539104461670e-01
-2.310912013053894043e-01 -4.305166602134704590e-01 -2.163425683975219727e-01
-2.696446776390075684e-01 -4.279394745826721191e-01 -1.739452034235000610e-01
-3.033204376697540283e-02 -5.094345211982727051e-01 -3.845228254795074463e-01
-9.906411916017532349e-02 -5.261217355728149414e-01 -3.540479242801666260e-01
-1.349008679389953613e-01 -4.809841215610504150e-01 -3.519866764545440674e-01
-1.790758818387985229e-01 -4.368034005165100098e-01 -3.506523072719573975e-01
-2.041080147027969360e-01 -4.311505258083343506e-01 -3.098617792129516602e-01
-2.252362221479415894e-01 -4.311819374561309814e-01 -2.722122669219970703e-01
-2.557494342327117920e-01 -4.292682409286499023e-01 -2.285692691802978516e-01
-2.865674495697021484e-01 -4.266945421695709229e-01 -1.868611425161361694e-01
-9.138754010200500488e-02 -4.935781061649322510e-01 -3.941261470317840576e-01
-1.492938846349716187e-01 -5.052958726882934570e-01 -3.686796724796295166e-01
-1.936503797769546509e-01 -5.199385285377502441e-01 -3.204663693904876709e-01
-2.153531610965728760e-01 -4.600335359573364258e-01 -3.453127741813659668e-01
-2.366692572832107544e-01 -4.340753257274627686e-01 -3.310959935188293457e-01
-2.586252391338348389e-01 -4.298555254936218262e-01 -2.884110510349273682e-01
-2.815068364143371582e-01 -4.287813007831573486e-01 -2.440997064113616943e-01
-3.057867288589477539e-01 -4.259225726127624512e-01 -2.002320587635040283e-01
-1.543864160776138306e-01 -4.732903540134429932e-01 -4.018067717552185059e-01
-2.023773193359375000e-01 -4.846549332141876221e-01 -3.708641231060028076e-01
-2.430007457733154297e-01 -5.064912438392639160e-01 -3.384829163551330566e-01
-2.685075402259826660e-01 -5.150458812713623047e-01 -2.879029512405395508e-01
-2.828791141510009766e-01 -4.447022974491119385e-01 -3.333010673522949219e-01
-2.973961234092712402e-01 -4.304167628288269043e-01 -3.111543357372283936e-01
-3.143306374549865723e-01 -4.300808012485504150e-01 -2.663731575012207031e-01
-3.362576067447662354e-01 -4.272646307945251465e-01 -2.146927118301391602e-01
4.972815215587615967e-01 -3.604160621762275696e-02 1.696315109729766846e-01
5.022743344306945801e-01 6.701864302158355713e-03 1.641836613416671753e-01
5.067843198776245117e-01 3.915668278932571411e-02 1.544841229915618896e-01
5.104897022247314453e-01 7.199745625257492065e-02 1.429242938756942749e-01
5.126937031745910645e-01 9.936182945966720581e-02 1.392107456922531128e-01
5.124268531799316406e-01 1.180384084582328796e-01 1.426324248313903809e-01
5.129579305648803711e-01 1.400982737541198730e-01 1.492142528295516968e-01
5.173653364181518555e-01 1.571398079395294189e-01 1.590886414051055908e-01
4.976407587528228760e-01 -7.195448875427246094e-02 1.439979523420333862e-01
5.017722249031066895e-01 -1.792892068624496460e-02 1.333512961864471436e-01
5.055515766143798828e-01 1.941258460283279419e-02 1.274045705795288086e-01
5.093912482261657715e-01 5.187105387449264526e-02 1.176675707101821899e-01
5.120249390602111816e-01 8.639793843030929565e-02 1.095414310693740845e-01
5.139521956443786621e-01 1.116201356053352356e-01 1.124474257230758667e-01
5.154472589492797852e-01 1.339325308799743652e-01 1.180445775389671326e-01
5.194827318191528320e-01 1.660432517528533936e-01 1.254633367061614990e-01
4.950578510761260986e-01 -1.201806068420410156e-01 1.283748745918273926e-01
5.006740093231201172e-01 -4.825021699070930481e-02 1.121116429567337036e-01
5.032051205635070801e-01 -2.476625144481658936e-03 1.067245304584503174e-01
5.069389343261718750e-01 3.292884677648544312e-02 1.016095131635665894e-01
5.105479359626770020e-01 7.008684426546096802e-02 9.494595229625701904e-02
5.134805440902709961e-01 1.003833338618278503e-01 9.155458211898803711e-02
5.157159566879272461e-01 1.257550716400146484e-01 9.346141666173934937e-02
5.194165110588073730e-01 1.596772968769073486e-01 9.897697716951370239e-02
4.891567826271057129e-01 -1.688964068889617920e-01 1.233471632003784180e-01
4.981337785720825195e-01 -8.931741863489151001e-02 9.767013043165206909e-02
5.007573366165161133e-01 -3.062904626131057739e-02 8.708561211824417114e-02
5.042064785957336426e-01 1.085112243890762329e-02 8.279455453157424927e-02
5.093501806259155273e-01 4.950309544801712036e-02 7.872313261032104492e-02
5.128527879714965820e-01 8.525434881448745728e-02 7.385785132646560669e-02
5.152345895767211914e-01 1.176200136542320251e-01 6.634651869535446167e-02
5.174537897109985352e-01 1.495335102081298828e-01 7.158909738063812256e-02
4.759613871574401855e-01 -2.161468267440795898e-01 9.888622909784317017e-02
4.903889894485473633e-01 -1.304844021797180176e-01 8.402647078037261963e-02
4.965215921401977539e-01 -6.721781194210052490e-02 6.616020202636718750e-02
5.007923841476440430e-01 -1.393220573663711548e-02 6.055938452482223511e-02
5.057353377342224121e-01 2.593647688627243042e-02 6.159485876560211182e-02
5.093208551406860352e-01 6.570794433355331421e-02 5.581889301538467407e-02
5.114542841911315918e-01 1.030905172228813171e-01 4.913295060396194458e-02
5.145504474639892578e-01 1.408658623695373535e-01 4.255594313144683838e-02
4.678890705108642578e-01 -2.329816520214080811e-01 3.654870018362998962e-02
4.824289381504058838e-01 -1.805421710014343262e-01 5.279829725623130798e-02
4.930496811866760254e-01 -1.052365526556968689e-01 3.540347516536712646e-02
4.965355992317199707e-01 -5.151414498686790466e-02 2.318458259105682373e-02
5.005181431770324707e-01 -4.884280264377593994e-03 2.598516643047332764e-02
5.039521455764770508e-01 4.162807017564773560e-02 2.868547290563583374e-02
5.073170065879821777e-01 8.187214285135269165e-02 2.144402265548706055e-02
5.115478038787841797e-01 1.272426545619964600e-01 7.819809019565582275e-03
4.767404496669769287e-01 -1.601528227329254150e-01 -4.107613116502761841e-02
4.712221622467041016e-01 -2.077738642692565918e-01 -3.753155469894409180e-04
4.850799739360809326e-01 -1.468390524387359619e-01 -5.123801529407501221e-03
4.920507967472076416e-01 -9.385433793067932129e-02 -2.143261581659317017e-02
4.946182966232299805e-01 -4.227724298834800720e-02 -3.064167499542236328e-02
4.992654323577880859e-01 6.566874682903289795e-03 -2.301639318466186523e-02
5.042491555213928223e-01 5.435276776552200317e-02 -2.017388492822647095e-02
5.085691809654235840e-01 1.050594821572303772e-01 -2.986478060483932495e-02
4.730477035045623779e-01 -7.033204287290573120e-02 -6.980264931917190552e-02
4.594369530677795410e-01 -1.406173408031463623e-01 -5.405869334936141968e-02
4.560121595859527588e-01 -1.703076362609863281e-01 -2.558380365371704102e-04
4.687359929084777832e-01 -1.240789890289306641e-01 -3.819756209850311279e-03
4.751102626323699951e-01 -7.515906542539596558e-02 -1.684492081403732300e-02
4.794906377792358398e-01 -3.027316182851791382e-02 -3.293773531913757324e-02
4.872967004776000977e-01 1.870658248662948608e-02 -3.352255374193191528e-02
4.877622425556182861e-01 6.883477419614791870e-02 -2.483551204204559326e-02
2.201766967773437500e-01 -5.172791481018066406e-01 -2.534662485122680664e-01
1.640098094940185547e-01 -5.166269540786743164e-01 -2.174143195152282715e-01
1.096643507480621338e-01 -5.154294371604919434e-01 -1.799425780773162842e-01
6.459596753120422363e-02 -5.137517452239990234e-01 -1.423847228288650513e-01
1.148775219917297363e-02 -5.140013694763183594e-01 -9.336163103580474854e-02
-3.768828511238098145e-02 -4.667643904685974121e-01 -1.169484183192253113e-01
-9.930200874805450439e-02 -4.284535348415374756e-01 -8.326441049575805664e-02
-1.581383645534515381e-01 -4.303725957870483398e-01 -2.563323080539703369e-02
1.647050976753234863e-01 -5.186632871627807617e-01 -2.690894901752471924e-01
1.063554286956787109e-01 -5.182182192802429199e-01 -2.299733459949493408e-01
5.435305833816528320e-02 -5.167946815490722656e-01 -1.948484182357788086e-01
8.142560720443725586e-03 -5.158841609954833984e-01 -1.571100056171417236e-01
-3.822484612464904785e-02 -5.153272747993469238e-01 -1.228551492094993591e-01
-9.446333348751068115e-02 -5.146324038505554199e-01 -7.472544908523559570e-02
-1.369870156049728394e-01 -4.407251477241516113e-01 -1.188924983143806458e-01
-2.066010534763336182e-01 -4.275909364223480225e-01 -6.769214570522308350e-02
1.016851961612701416e-01 -5.198340415954589844e-01 -2.776234745979309082e-01
4.691129922866821289e-02 -5.199086666107177734e-01 -2.368662059307098389e-01
-2.713829278945922852e-03 -5.184733867645263672e-01 -2.010504901409149170e-01
-4.586501419544219971e-02 -5.158290863037109375e-01 -1.687374860048294067e-01
-8.765338361263275146e-02 -5.145163536071777344e-01 -1.390552371740341187e-01
-1.319293379783630371e-01 -5.164532065391540527e-01 -1.075862795114517212e-01
-1.786266416311264038e-01 -4.912339150905609131e-01 -9.960342198610305786e-02
-2.344658225774765015e-01 -4.283701777458190918e-01 -1.147725954651832581e-01
4.553920030593872070e-02 -5.203233361244201660e-01 -2.836679816246032715e-01
-4.944473505020141602e-03 -5.206576585769653320e-01 -2.416996210813522339e-01
-5.025866627693176270e-02 -5.187575221061706543e-01 -2.099823355674743652e-01
-9.320943057537078857e-02 -5.160104036331176758e-01 -1.826279312372207642e-01
-1.302903145551681519e-01 -5.146368741989135742e-01 -1.568052619695663452e-01
-1.675666123628616333e-01 -5.155975818634033203e-01 -1.310465335845947266e-01
-2.162899374961853027e-01 -5.178487896919250488e-01 -8.659734576940536499e-02
-2.543833851814270020e-01 -4.492529034614562988e-01 -1.399601101875305176e-01
-3.663152456283569336e-03 -5.201258659362792969e-01 -2.879884839057922363e-01
-4.810142517089843750e-02 -5.202162861824035645e-01 -2.552003264427185059e-01
-8.941578865051269531e-02 -5.187830924987792969e-01 -2.232619524002075195e-01
-1.298808157444000244e-01 -5.176739692687988281e-01 -1.996317803859710693e-01
-1.655572503805160522e-01 -5.155989527702331543e-01 -1.809869855642318726e-01
-1.963672041893005371e-01 -5.147561430931091309e-01 -1.536452323198318481e-01
-2.329321950674057007e-01 -5.169218778610229492e-01 -1.227346211671829224e-01
-2.776980400085449219e-01 -5.085385441780090332e-01 -8.290977776050567627e-02
-5.257476866245269775e-02 -5.190031528472900391e-01 -2.930819392204284668e-01
-9.364378452301025391e-02 -5.192527174949645996e-01 -2.672035694122314453e-01
-1.350403726100921631e-01 -5.196342468261718750e-01 -2.454443573951721191e-01
-1.705886423587799072e-01 -5.183552503585815430e-01 -2.238165736198425293e-01
-1.969791054725646973e-01 -5.174474716186523438e-01 -2.033317983150482178e-01
-2.234015464782714844e-01 -5.146923065185546875e-01 -1.818900108337402344e-01
-2.542287707328796387e-01 -5.161307454109191895e-01 -1.515890657901763916e-01
-2.878420650959014893e-01 -5.166275501251220703e-01 -1.127370819449424744e-01
-1.025691181421279907e-01 -5.160961151123046875e-01 -3.051075637340545654e-01
-1.401792019605636597e-01 -5.186908245086669922e-01 -2.828871607780456543e-01
-1.773448288440704346e-01 -5.197281837463378906e-01 -2.664988338947296143e-01
-2.036304473876953125e-01 -5.189363360404968262e-01 -2.494260519742965698e-01
-2.278926670551300049e-01 -5.180472135543823242e-01 -2.264935672283172607e-01
-2.524138987064361572e-01 -5.170061588287353516e-01 -2.055394947528839111e-01
-2.797419428825378418e-01 -5.145483613014221191e-01 -1.795324832201004028e-01
-3.101015686988830566e-01 -5.161398649215698242e-01 -1.469717174768447876e-01
-1.549044698476791382e-01 -5.103234648704528809e-01 -3.270696997642517090e-01
-1.933423131704330444e-01 -5.161660313606262207e-01 -3.020034432411193848e-01
-2.252577543258666992e-01 -5.180096626281738281e-01 -2.812109589576721191e-01
-2.450017184019088745e-01 -5.180856585502624512e-01 -2.631844282150268555e-01
-2.667557597160339355e-01 -5.176616311073303223e-01 -2.444040626287460327e-01
-2.920772433280944824e-01 -5.171854496002197266e-01 -2.236251831054687500e-01
-3.139421939849853516e-01 -5.169607400894165039e-01 -2.001627087593078613e-01
-3.380139470100402832e-01 -5.142170190811157227e-01 -1.642926037311553955e-01
1.614639163017272949e-01 -4.291574358940124512e-01 -2.174120396375656128e-02
1.230651736259460449e-01 -4.297608435153961182e-01 1.604287326335906982e-02
9.110204875469207764e-02 -4.298953413963317871e-01 3.585831075906753540e-02
6.265591084957122803e-02 -4.296084344387054443e-01 5.039519816637039185e-02
3.727456927299499512e-02 -4.292969107627868652e-01 6.794647127389907837e-02
6.526529788970947266e-03 -4.292261600494384766e-01 8.349820226430892944e-02
-2.671141922473907471e-02 -4.302908182144165039e-01 1.006372645497322083e-01
-6.131288409233093262e-02 -4.309905767440795898e-01 1.229596361517906189e-01
1.306660473346710205e-01 -4.306754767894744873e-01 -7.295676320791244507e-02
8.366237580776214600e-02 -4.305219650268554688e-01 -3.106090426445007324e-02
4.921159148216247559e-02 -4.303829669952392578e-01 -4.246518015861511230e-03
1.530806720256805420e-02 -4.308612942695617676e-01 1.357882469892501831e-02
-1.406164467334747314e-02 -4.310687184333801270e-01 3.905490785837173462e-02
-4.658454656600952148e-02 -4.313629865646362305e-01 6.116082519292831421e-02
-8.011969923973083496e-02 -4.322063326835632324e-01 8.187011629343032837e-02
-1.124000847339630127e-01 -4.327052831649780273e-01 1.045507267117500305e-01
1.098223179578781128e-01 -4.323540329933166504e-01 -1.062642708420753479e-01
5.107586085796356201e-02 -4.315485656261444092e-01 -7.240182906389236450e-02
6.351292133331298828e-03 -4.315529763698577881e-01 -4.602197185158729553e-02
-2.749586105346679688e-02 -4.320803880691528320e-01 -1.631950587034225464e-02
-5.861261487007141113e-02 -4.326004385948181152e-01 1.180983334779739380e-02
-8.815118670463562012e-02 -4.329302310943603516e-01 4.038602858781814575e-02
-1.184585541486740112e-01 -4.330848753452301025e-01 6.609564274549484253e-02
-1.501445770263671875e-01 -4.337114691734313965e-01 8.985827118158340454e-02
8.926156163215637207e-02 -4.321237504482269287e-01 -1.417080461978912354e-01
2.770447731018066406e-02 -4.331206083297729492e-01 -1.090405061841011047e-01
-2.324792742729187012e-02 -4.320195913314819336e-01 -7.816713303327560425e-02
-6.008263677358627319e-02 -4.325525462627410889e-01 -4.599476978182792664e-02
-9.049411118030548096e-02 -4.330255985260009766e-01 -1.455811411142349243e-02
-1.206244230270385742e-01 -4.331491291522979736e-01 1.469755172729492188e-02
-1.505105197429656982e-01 -4.332750439643859863e-01 4.544911533594131470e-02
-1.816558241844177246e-01 -4.338847100734710693e-01 7.561717182397842407e-02
6.042748689651489258e-02 -4.320769011974334717e-01 -1.832924187183380127e-01
-6.980195641517639160e-03 -4.334033727645874023e-01 -1.430473327636718750e-01
-5.700990557670593262e-02 -4.329739511013031006e-01 -1.098224297165870667e-01
-9.113021194934844971e-02 -4.328112900257110596e-01 -7.378083467483520508e-02
-1.211201325058937073e-01 -4.333024621009826660e-01 -4.375669732689857483e-02
-1.530672013759613037e-01 -4.332435727119445801e-01 -1.108204573392868042e-02
-1.793524920940399170e-01 -4.334442615509033203e-01 2.651050686836242676e-02
-2.084767967462539673e-01 -4.338127672672271729e-01 6.135719269514083862e-02
2.558521926403045654e-02 -4.399573206901550293e-01 -2.253485620021820068e-01
-4.405963420867919922e-02 -4.333702921867370605e-01 -1.780115664005279541e-01
-9.278164058923721313e-02 -4.347330033779144287e-01 -1.394272595643997192e-01
-1.276068240404129028e-01 -4.336354136466979980e-01 -1.062721982598304749e-01
-1.592184901237487793e-01 -4.333077967166900635e-01 -7.165795564651489258e-02
-1.849857270717620850e-01 -4.332371950149536133e-01 -3.420240059494972229e-02
-2.079155147075653076e-01 -4.333453774452209473e-01 7.857099175453186035e-03
-2.381003350019454956e-01 -4.330337941646575928e-01 4.644321650266647339e-02
-3.154566884040832520e-02 -5.024800300598144531e-01 -2.232937812805175781e-01
-7.922713458538055420e-02 -4.319425225257873535e-01 -2.278511524200439453e-01
-1.330491751432418823e-01 -4.339515864849090576e-01 -1.710247695446014404e-01
-1.683533191680908203e-01 -4.351046979427337646e-01 -1.379050761461257935e-01
-1.921387612819671631e-01 -4.333683550357818604e-01 -1.007148399949073792e-01
-2.123632580041885376e-01 -4.328774809837341309e-01 -6.176515668630599976e-02
-2.373859882354736328e-01 -4.329444766044616699e-01 -1.760995388031005859e-02
-2.700242102146148682e-01 -4.320858716964721680e-01 2.478209137916564941e-02
-8.805651217699050903e-02 -5.133635997772216797e-01 -2.557797729969024658e-01
-1.412382721900939941e-01 -4.665049612522125244e-01 -2.506295144557952881e-01
-1.919778585433959961e-01 -4.334039688110351562e-01 -2.118163704872131348e-01
-2.193566709756851196e-01 -4.334951937198638916e-01 -1.658042520284652710e-01
-2.348091006278991699e-01 -4.339753687381744385e-01 -1.314565390348434448e-01
-2.518165707588195801e-01 -4.324411749839782715e-01 -9.058041870594024658e-02
-2.821513414382934570e-01 -4.320698976516723633e-01 -5.054702237248420715e-02
-3.093208968639373779e-01 -4.315167367458343506e-01 -6.774850189685821533e-03
3.589067161083221436e-01 -4.976943731307983398e-01 -1.952793449163436890e-01
3.374204635620117188e-01 -4.538897275924682617e-01 -2.376902550458908081e-01
3.257319331169128418e-01 -4.521231353282928467e-01 -1.960476934909820557e-01
3.152033984661102295e-01 -4.522311985492706299e-01 -1.740911304950714111e-01
3.028651475906372070e-01 -4.520731270313262939e-01 -1.546483635902404785e-01
2.838414609432220459e-01 -4.530763626098632812e-01 -1.336885094642639160e-01
2.547146081924438477e-01 -4.537370800971984863e-01 -1.077638864517211914e-01
2.138729542493820190e-01 -4.544717073440551758e-01 -7.606995105743408203e-02
3.254194855690002441e-01 -5.383190512657165527e-01 -1.793830692768096924e-01
3.213124275207519531e-01 -4.762956798076629639e-01 -2.701244950294494629e-01
3.022189736366271973e-01 -4.517814218997955322e-01 -2.704816460609436035e-01
2.788771688938140869e-01 -4.509477019309997559e-01 -2.283466160297393799e-01
2.574247121810913086e-01 -4.509983062744140625e-01 -2.044251859188079834e-01
2.329519689083099365e-01 -4.510351419448852539e-01 -1.816088855266571045e-01
2.013174593448638916e-01 -4.510551095008850098e-01 -1.554562300443649292e-01
1.552317142486572266e-01 -4.507395923137664795e-01 -1.238736808300018311e-01
3.107469975948333740e-01 -5.388175845146179199e-01 -2.454145103693008423e-01
2.898562550544738770e-01 -5.207377672195434570e-01 -2.276445925235748291e-01
2.734304368495941162e-01 -4.638057351112365723e-01 -3.128218948841094971e-01
2.383344620466232300e-01 -4.497236311435699463e-01 -2.867904007434844971e-01
2.140293121337890625e-01 -4.496964216232299805e-01 -2.511802613735198975e-01
1.839897632598876953e-01 -4.496968090534210205e-01 -2.229276597499847412e-01
1.517362594604492188e-01 -4.494113028049468994e-01 -1.959368586540222168e-01
1.166687160730361938e-01 -4.488481283187866211e-01 -1.622772216796875000e-01
2.960106134414672852e-01 -5.334654450416564941e-01 -2.958563268184661865e-01
2.680202126502990723e-01 -5.392155051231384277e-01 -2.530504465103149414e-01
2.427629232406616211e-01 -4.956686496734619141e-01 -2.938271462917327881e-01
2.054046839475631714e-01 -4.509771764278411865e-01 -3.359469175338745117e-01
1.794353425502777100e-01 -4.483081996440887451e-01 -2.943096756935119629e-01
1.446568518877029419e-01 -4.479110836982727051e-01 -2.616934776306152344e-01
1.142889410257339478e-01 -4.477220475673675537e-01 -2.340891361236572266e-01
7.715395092964172363e-02 -4.479177594184875488e-01 -2.017888128757476807e-01
2.744753360748291016e-01 -5.289826393127441406e-01 -3.295510411262512207e-01
2.330556958913803101e-01 -5.381889939308166504e-01 -3.068871200084686279e-01
1.972809284925460815e-01 -5.350697636604309082e-01 -2.758399844169616699e-01
1.757801920175552368e-01 -4.718332886695861816e-01 -3.465666174888610840e-01
1.371632814407348633e-01 -4.490602612495422363e-01 -3.428210914134979248e-01
1.037723273038864136e-01 -4.468065500259399414e-01 -3.005272746086120605e-01
6.339251995086669922e-02 -4.464308023452758789e-01 -2.645379602909088135e-01
2.096754312515258789e-02 -4.475119113922119141e-01 -2.295058965682983398e-01
2.277737557888031006e-01 -5.193383097648620605e-01 -3.513212502002716064e-01
1.856515854597091675e-01 -5.315212011337280273e-01 -3.372349441051483154e-01
1.538073420524597168e-01 -5.399042367935180664e-01 -3.076758086681365967e-01
1.208056062459945679e-01 -5.168375372886657715e-01 -3.038314878940582275e-01
8.465203642845153809e-02 -4.528099596500396729e-01 -3.622419238090515137e-01
4.307812452316284180e-02 -4.462073147296905518e-01 -3.324084579944610596e-01
1.855209469795227051e-03 -4.455870687961578369e-01 -2.872901260852813721e-01
-4.347410798072814941e-02 -4.475969970226287842e-01 -2.488339990377426147e-01
1.761301606893539429e-01 -5.068020820617675781e-01 -3.686778247356414795e-01
1.332861632108688354e-01 -5.184007287025451660e-01 -3.536755144596099854e-01
9.582239389419555664e-02 -5.329903364181518555e-01 -3.293040692806243896e-01
5.640906095504760742e-02 -5.316792130470275879e-01 -2.981001138687133789e-01
1.929424703121185303e-02 -4.808980524539947510e-01 -3.343015611171722412e-01
-3.885820508003234863e-02 -4.438276886940002441e-01 -3.591988086700439453e-01
-7.493573427200317383e-02 -4.462136030197143555e-01 -3.135021626949310303e-01
-1.123626828193664551e-01 -4.485234320163726807e-01 -2.680374085903167725e-01
1.144251376390457153e-01 -4.940600991249084473e-01 -3.935863077640533447e-01
6.891065835952758789e-02 -5.077773332595825195e-01 -3.681038022041320801e-01
2.263247966766357422e-02 -5.163261890411376953e-01 -3.448122143745422363e-01
-2.165010571479797363e-02 -5.293042659759521484e-01 -3.164008557796478271e-01
-7.396277785301208496e-02 -5.246225595474243164e-01 -2.857463359832763672e-01
-1.197364628314971924e-01 -4.654027819633483887e-01 -3.488904237747192383e-01
-1.574601531028747559e-01 -4.483608007431030273e-01 -3.406138122081756592e-01
-1.890317797660827637e-01 -4.477287828922271729e-01 -2.913311719894409180e-01
4.227167963981628418e-01 6.433124840259552002e-02 -2.260724306106567383e-01
4.278166294097900391e-01 1.285971254110336304e-01 -2.599467635154724121e-01
4.305531978607177734e-01 1.868574619293212891e-01 -2.749862670898437500e-01
4.299028217792510986e-01 2.509300708770751953e-01 -2.877173125743865967e-01
4.329262971878051758e-01 3.157453536987304688e-01 -3.017237782478332520e-01
4.349741339683532715e-01 3.565754890441894531e-01 -3.010684251785278320e-01
4.304967224597930908e-01 3.686981797218322754e-01 -2.731869816780090332e-01
4.150219559669494629e-01 3.760600984096527100e-01 -2.275801450014114380e-01
4.096225500106811523e-01 1.294890046119689941e-02 -2.637380361557006836e-01
4.105365872383117676e-01 8.586488664150238037e-02 -2.720334529876708984e-01
4.171727597713470459e-01 1.500470936298370361e-01 -2.986308336257934570e-01
4.130413234233856201e-01 2.086485922336578369e-01 -3.091995716094970703e-01
4.128775596618652344e-01 2.724491357803344727e-01 -3.211438655853271484e-01
4.186234772205352783e-01 3.315748572349548340e-01 -3.346155881881713867e-01
4.152204990386962891e-01 3.708222508430480957e-01 -3.372807800769805908e-01
3.954701125621795654e-01 3.806957006454467773e-01 -3.175202608108520508e-01
4.214517176151275635e-01 2.642646431922912598e-02 -3.256244361400604248e-01
3.963806629180908203e-01 2.607828378677368164e-02 -2.864225804805755615e-01
4.042792320251464844e-01 1.072286814451217651e-01 -3.107629716396331787e-01
4.068935513496398926e-01 1.702444702386856079e-01 -3.308658003807067871e-01
4.020169675350189209e-01 2.282218188047409058e-01 -3.395104706287384033e-01
3.984958827495574951e-01 2.887785732746124268e-01 -3.549735546112060547e-01
3.901844918727874756e-01 3.498911857604980469e-01 -3.782851994037628174e-01
3.708795309066772461e-01 3.873953223228454590e-01 -3.744185268878936768e-01
4.204149842262268066e-01 8.329223096370697021e-02 -3.530594110488891602e-01
3.867813050746917725e-01 2.532486617565155029e-02 -3.632292449474334717e-01
3.778713345527648926e-01 4.788278043270111084e-02 -3.196477890014648438e-01
3.836383819580078125e-01 1.277510672807693481e-01 -3.509654104709625244e-01
3.800405263900756836e-01 1.859612464904785156e-01 -3.620192706584930420e-01
3.727023899555206299e-01 2.508704960346221924e-01 -3.790110647678375244e-01
3.670806884765625000e-01 3.133568763732910156e-01 -4.030867815017700195e-01
3.533167839050292969e-01 3.799713253974914551e-01 -4.304097890853881836e-01
4.004316627979278564e-01 1.517371237277984619e-01 -3.838875889778137207e-01
3.647963106632232666e-01 8.420416712760925293e-02 -4.070106446743011475e-01
3.444149792194366455e-01 2.458943426609039307e-02 -4.120184779167175293e-01
3.522488176822662354e-01 7.658544182777404785e-02 -3.675772547721862793e-01
3.572743237018585205e-01 1.492559015750885010e-01 -3.861415684223175049e-01
3.520969748497009277e-01 2.121346741914749146e-01 -3.996879458427429199e-01
3.423402309417724609e-01 2.810319066047668457e-01 -4.219765961170196533e-01
3.298407793045043945e-01 3.473330736160278320e-01 -4.401646852493286133e-01
3.700522780418395996e-01 2.239484786987304688e-01 -4.142954051494598389e-01
3.303353488445281982e-01 1.570558547973632812e-01 -4.234062433242797852e-01
3.063978552818298340e-01 8.730050921440124512e-02 -4.283156692981719971e-01
3.081372976303100586e-01 4.126340150833129883e-02 -3.827221393585205078e-01
3.225535750389099121e-01 1.118121892213821411e-01 -3.656902313232421875e-01
3.226771950721740723e-01 1.820369064807891846e-01 -3.792760372161865234e-01
3.121593296527862549e-01 2.493524700403213501e-01 -3.911290764808654785e-01
3.008329272270202637e-01 3.142665028572082520e-01 -4.063005149364471436e-01
3.376271426677703857e-01 2.873882055282592773e-01 -4.386267364025115967e-01
3.026376366615295410e-01 2.440393716096878052e-01 -4.353553652763366699e-01
2.801092267036437988e-01 1.787806302309036255e-01 -4.279722869396209717e-01
2.788089513778686523e-01 1.045769006013870239e-01 -4.164787828922271729e-01
2.864609360694885254e-01 7.344962656497955322e-02 -3.427906036376953125e-01
2.962988018989562988e-01 1.521873772144317627e-01 -3.525472581386566162e-01
2.933600544929504395e-01 2.193530946969985962e-01 -3.649066686630249023e-01
2.775448560714721680e-01 2.822249829769134521e-01 -3.750850856304168701e-01
3.050130903720855713e-01 3.311389684677124023e-01 -4.635569453239440918e-01
2.821817100048065186e-01 3.119842708110809326e-01 -4.451775848865509033e-01
2.681738734245300293e-01 2.614298164844512939e-01 -4.236550033092498779e-01
2.672308683395385742e-01 1.857357174158096313e-01 -4.078725874423980713e-01
2.705871164798736572e-01 1.074234694242477417e-01 -3.894534111022949219e-01
2.816112637519836426e-01 1.140427589416503906e-01 -3.207964301109313965e-01
2.833579778671264648e-01 1.903000921010971069e-01 -3.352309465408325195e-01
2.642208933830261230e-01 2.566517591476440430e-01 -3.527813553810119629e-01
5.307331085205078125e-01 8.035087585449218750e-02 3.886444866657257080e-02
5.321671962738037109e-01 1.219073683023452759e-01 2.963163703680038452e-02
5.336977243423461914e-01 1.537744998931884766e-01 2.243103086948394775e-02
5.353628396987915039e-01 1.850311458110809326e-01 1.168018952012062073e-02
5.376366972923278809e-01 2.221817821264266968e-01 -2.838745713233947754e-04
5.395861864089965820e-01 2.551238536834716797e-01 -9.419173002243041992e-03
5.429286956787109375e-01 2.843047380447387695e-01 -1.173480600118637085e-02
5.450476408004760742e-01 3.071522712707519531e-01 -7.175955921411514282e-03
5.278421640396118164e-01 4.336046054959297180e-02 1.728126779198646545e-02
5.290657281875610352e-01 9.642983973026275635e-02 9.118128567934036255e-03
5.305579900741577148e-01 1.317942887544631958e-01 2.819601446390151978e-03
5.320783853530883789e-01 1.630928218364715576e-01 -3.666710108518600464e-03
5.342141985893249512e-01 2.005627602338790894e-01 -1.689272746443748474e-02
5.366263985633850098e-01 2.391994744539260864e-01 -2.442006766796112061e-02
5.382536649703979492e-01 2.697964906692504883e-01 -3.015744686126708984e-02
5.409612655639648438e-01 3.021810650825500488e-01 -2.997253090143203735e-02
5.252798199653625488e-01 7.346699014306068420e-03 5.149289965629577637e-03
5.271891951560974121e-01 6.712858378887176514e-02 -4.904299974441528320e-03
5.293679237365722656e-01 1.111789345741271973e-01 -1.277560368180274963e-02
5.303313732147216797e-01 1.421142518520355225e-01 -2.058137953281402588e-02
5.314233303070068359e-01 1.758837550878524780e-01 -2.620645985007286072e-02
5.335999727249145508e-01 2.178893536329269409e-01 -3.344417363405227661e-02
5.352116823196411133e-01 2.551912665367126465e-01 -4.058576002717018127e-02
5.357711911201477051e-01 2.918929457664489746e-01 -5.355998128652572632e-02
5.212598443031311035e-01 -3.035360947251319885e-02 -7.365532219409942627e-04
5.256340503692626953e-01 4.187411069869995117e-02 -1.499589160084724426e-02
5.267231464385986328e-01 8.706042170524597168e-02 -2.545594424009323120e-02
5.273073911666870117e-01 1.271633803844451904e-01 -3.247530013322830200e-02
5.280877351760864258e-01 1.567544937133789062e-01 -3.667337447404861450e-02
5.300002694129943848e-01 1.947608739137649536e-01 -4.383579269051551819e-02
5.312257409095764160e-01 2.384063452482223511e-01 -5.359780043363571167e-02
5.311912298202514648e-01 2.808899879455566406e-01 -6.708295643329620361e-02
