1.191895753145217896e-01 3.961757421493530273e-01 -4.742463231086730957e-01
1.140129864215850830e-01 4.461371898651123047e-01 -4.794888198375701904e-01
9.797550737857818604e-02 5.019186735153198242e-01 -4.916399121284484863e-01
6.376472115516662598e-02 5.289193391799926758e-01 -4.895701408386230469e-01
1.165018975734710693e-02 5.331361293792724609e-01 -4.576066136360168457e-01
8.804123103618621826e-02 1.643078625202178955e-01 -4.748621881008148193e-01
6.154456734657287598e-02 2.255403399467468262e-01 -4.457046687602996826e-01
5.209924280643463135e-02 2.948126792907714844e-01 -4.575799107551574707e-01
4.692918062210083008e-02 3.582663834095001221e-01 -4.713281095027923584e-01
4.158397018909454346e-02 4.074115157127380371e-01 -4.825733900070190430e-01
2.211661636829376221e-02 4.694466590881347656e-01 -4.880437850952148438e-01
-9.093910455703735352e-03 5.242521762847900391e-01 -4.955878853797912598e-01
-5.914996936917304993e-02 5.490520000457763672e-01 -4.760295450687408447e-01
7.312206923961639404e-02 2.065600007772445679e-01 -5.172039270401000977e-01
1.759561896324157715e-02 1.637171655893325806e-01 -4.791646301746368408e-01
5.329817533493041992e-03 2.387822270393371582e-01 -4.556228816509246826e-01
7.592052221298217773e-03 3.074869215488433838e-01 -4.671678245067596436e-01
-3.542453050613403320e-04 3.671174645423889160e-01 -4.796889126300811768e-01
-1.480344682931900024e-02 4.195285439491271973e-01 -4.849151670932769775e-01
-5.292785167694091797e-02 4.939066767692565918e-01 -4.912840425968170166e-01
-1.007322221994400024e-01 5.508478283882141113e-01 -4.828622341156005859e-01
5.893959105014801025e-02 2.586904466152191162e-01 -5.333259105682373047e-01
9.977594017982482910e-03 2.012812197208404541e-01 -5.320229530334472656e-01
-2.210509032011032104e-02 1.741164773702621460e-01 -4.819403886795043945e-01
-3.117690607905387878e-02 2.546198964118957520e-01 -4.623741209506988525e-01
-3.815330192446708679e-02 3.202692270278930664e-01 -4.699561595916748047e-01
-5.754774808883666992e-02 3.808853626251220703e-01 -4.737887978553771973e-01
-9.357476234436035156e-02 4.560232162475585938e-01 -4.697316288948059082e-01
-1.336483359336853027e-01 5.320931077003479004e-01 -4.728318452835083008e-01
4.933419823646545410e-02 3.118588924407958984e-01 -5.547995567321777344e-01
-7.274687290191650391e-03 2.642666995525360107e-01 -5.416097044944763184e-01
-4.127490147948265076e-02 2.003649920225143433e-01 -5.310791730880737305e-01
-7.346007227897644043e-02 1.963807642459869385e-01 -4.684582948684692383e-01
-7.927765697240829468e-02 2.755843997001647949e-01 -4.551692605018615723e-01
-9.213587641716003418e-02 3.493019640445709229e-01 -4.579092860221862793e-01
-1.234344467520713806e-01 4.148722290992736816e-01 -4.538041055202484131e-01
-1.605730652809143066e-01 5.034860372543334961e-01 -4.531794786453247070e-01
1.723299920558929443e-02 3.594113588333129883e-01 -5.947277545928955078e-01
-3.434726223349571228e-02 3.194966614246368408e-01 -5.531786680221557617e-01
-7.551187276840209961e-02 2.642371058464050293e-01 -5.381327271461486816e-01
-1.035032197833061218e-01 2.059755176305770874e-01 -5.170239806175231934e-01
-1.115905791521072388e-01 2.316803932189941406e-01 -4.499011039733886719e-01
-1.243246048688888550e-01 3.123587369918823242e-01 -4.419399797916412354e-01
-1.508902311325073242e-01 3.906922340393066406e-01 -4.357441067695617676e-01
-1.898589134216308594e-01 4.653054475784301758e-01 -4.335237443447113037e-01
-1.226980984210968018e-02 4.130805730819702148e-01 -6.616453528404235840e-01
-5.712027102708816528e-02 3.855353593826293945e-01 -5.748213529586791992e-01
-1.033494919538497925e-01 3.324421048164367676e-01 -5.398585200309753418e-01
-1.276546269655227661e-01 2.788746953010559082e-01 -5.156702399253845215e-01
-1.557679921388626099e-01 2.289581596851348877e-01 -4.806152880191802979e-01
-1.734025478363037109e-01 2.807339429855346680e-01 -4.222599864006042480e-01
-1.961081475019454956e-01 3.687285482883453369e-01 -4.156442582607269287e-01
-2.334620654582977295e-01 4.366517961025238037e-01 -4.137027263641357422e-01
-4.184982553124427795e-02 4.468864500522613525e-01 -7.289553880691528320e-01
-8.487632870674133301e-02 4.330683946609497070e-01 -6.386238336563110352e-01
-1.266690790653228760e-01 4.071209728717803955e-01 -5.513100624084472656e-01
-1.659726798534393311e-01 3.642536699771881104e-01 -5.089251399040222168e-01
-1.884208619594573975e-01 3.025043010711669922e-01 -4.810847938060760498e-01
-2.155983746051788330e-01 2.592253386974334717e-01 -4.326083660125732422e-01
-2.404989451169967651e-01 3.274826407432556152e-01 -3.956735432147979736e-01
-2.740223705768585205e-01 4.102857112884521484e-01 -3.952000737190246582e-01
-3.921942710876464844e-01 3.790668845176696777e-01 6.030440330505371094e-03
-4.142799675464630127e-01 4.460041224956512451e-01 -4.513072222471237183e-02
-4.222453236579895020e-01 4.771249294281005859e-01 -7.799743115901947021e-02
-4.257149398326873779e-01 5.256711244583129883e-01 -1.013384014368057251e-01
-4.321177601814270020e-01 5.529263019561767578e-01 -4.879850894212722778e-02
-4.483674168586730957e-01 5.553482174873352051e-01 2.656728029251098633e-04
-4.742578566074371338e-01 5.507057905197143555e-01 4.758532345294952393e-02
-4.999162554740905762e-01 5.425555109977722168e-01 1.052821874618530273e-01
-4.136241972446441650e-01 3.502981066703796387e-01 -8.673423528671264648e-02
-4.417688846588134766e-01 3.895048499107360840e-01 -4.787991940975189209e-02
-4.410991966724395752e-01 4.390123784542083740e-01 -9.379696846008300781e-02
-4.426037669181823730e-01 4.801757037639617920e-01 -1.204662993550300598e-01
-4.437998533248901367e-01 5.410139560699462891e-01 -1.365876197814941406e-01
-4.583176970481872559e-01 5.683013796806335449e-01 -7.155942916870117188e-02
-4.773505330085754395e-01 5.751388072967529297e-01 -2.005182206630706787e-02
-4.928539097309112549e-01 5.782808065414428711e-01 2.217650413513183594e-02
-3.926436901092529297e-01 3.750081658363342285e-01 -1.635586619377136230e-01
-4.396023154258728027e-01 3.468124866485595703e-01 -1.158759295940399170e-01
-4.454510211944580078e-01 3.968089818954467773e-01 -1.074701249599456787e-01
-4.391233623027801514e-01 4.498690366744995117e-01 -1.532504409551620483e-01
-4.394976496696472168e-01 4.921380579471588135e-01 -1.804410219192504883e-01
-4.392918050289154053e-01 5.580649375915527344e-01 -1.876103878021240234e-01
-4.565399289131164551e-01 5.863844156265258789e-01 -1.246632188558578491e-01
-4.872191846370697021e-01 5.944820642471313477e-01 -6.515748798847198486e-02
-3.797022104263305664e-01 4.104019999504089355e-01 -2.122965455055236816e-01
-4.161198735237121582e-01 3.694119453430175781e-01 -2.104198932647705078e-01
-4.519689381122589111e-01 3.527421057224273682e-01 -1.531061381101608276e-01
-4.482311606407165527e-01 4.119545221328735352e-01 -1.589291691780090332e-01
-4.470671713352203369e-01 4.627954065799713135e-01 -1.873254328966140747e-01
-4.522062540054321289e-01 5.107483267784118652e-01 -2.276513427495956421e-01
-4.657424688339233398e-01 5.713236331939697266e-01 -2.202333509922027588e-01
-4.932320117950439453e-01 5.981757640838623047e-01 -1.302039176225662231e-01
-3.764081001281738281e-01 4.344056248664855957e-01 -2.538259625434875488e-01
-4.192301630973815918e-01 4.064892828464508057e-01 -2.421721518039703369e-01
-4.635940790176391602e-01 3.693420290946960449e-01 -2.286906242370605469e-01
-4.798496663570404053e-01 3.741137385368347168e-01 -1.474635452032089233e-01
-4.720346331596374512e-01 4.294881820678710938e-01 -1.542114019393920898e-01
-4.771630764007568359e-01 4.748596549034118652e-01 -1.663503646850585938e-01
-4.893288910388946533e-01 5.269296765327453613e-01 -1.869291663169860840e-01
-4.996115565299987793e-01 5.860962271690368652e-01 -1.864582598209381104e-01
-4.018417894840240479e-01 4.676282405853271484e-01 -2.691488862037658691e-01
-4.530192315578460693e-01 4.404284954071044922e-01 -2.529622018337249756e-01
-4.842648506164550781e-01 4.127521812915802002e-01 -2.243702113628387451e-01
-5.027552843093872070e-01 3.758261203765869141e-01 -1.937953233718872070e-01
-5.022345781326293945e-01 3.885713815689086914e-01 -1.091393679380416870e-01
-4.964566528797149658e-01 4.417275190353393555e-01 -1.184915080666542053e-01
-5.028387904167175293e-01 4.957765340805053711e-01 -1.237309500575065613e-01
-5.069577097892761230e-01 5.499720573425292969e-01 -1.381034106016159058e-01
-4.320708811283111572e-01 5.007860660552978516e-01 -2.876041233539581299e-01
-4.784814417362213135e-01 4.837128818035125732e-01 -2.575532197952270508e-01
-4.945636987686157227e-01 4.708087742328643799e-01 -2.091459035873413086e-01
-5.026910305023193359e-01 4.396757185459136963e-01 -1.772309243679046631e-01
-5.104653239250183105e-01 3.971830010414123535e-01 -1.373352706432342529e-01
-5.065976381301879883e-01 4.117755889892578125e-01 -5.965192615985870361e-02
-5.070388913154602051e-01 4.709087312221527100e-01 -6.677691638469696045e-02
-5.137162208557128906e-01 5.208273530006408691e-01 -6.548706442117691040e-02
-4.631267189979553223e-01 5.322578549385070801e-01 -2.990397512912750244e-01
-4.956996440887451172e-01 5.328339338302612305e-01 -2.454650402069091797e-01
-4.978213608264923096e-01 5.203075408935546875e-01 -1.968393325805664062e-01
-5.037981867790222168e-01 4.939017891883850098e-01 -1.613274365663528442e-01
-5.091377496719360352e-01 4.530852437019348145e-01 -1.356154680252075195e-01
-5.145723819732666016e-01 4.126905500888824463e-01 -8.913323283195495605e-02
-5.109833478927612305e-01 4.409089684486389160e-01 -2.517318725585937500e-02
-5.151872634887695312e-01 4.997399449348449707e-01 -2.452966570854187012e-02
-4.091059267520904541e-01 1.505931764841079712e-01 1.387673318386077881e-01
-4.103519320487976074e-01 1.984610259532928467e-01 1.296339631080627441e-01
-4.112473726272583008e-01 2.438879907131195068e-01 1.226458027958869934e-01
-4.091306626796722412e-01 2.902871370315551758e-01 1.085722818970680237e-01
-4.086745977401733398e-01 3.336403369903564453e-01 1.037615016102790833e-01
-4.089111089706420898e-01 3.636452853679656982e-01 1.357478797435760498e-01
-4.131819605827331543e-01 3.795459866523742676e-01 1.734030842781066895e-01
-4.348746240139007568e-01 3.965107500553131104e-01 2.074455618858337402e-01
-4.085639715194702148e-01 1.095303744077682495e-01 9.845230728387832642e-02
-4.116593599319458008e-01 1.640349030494689941e-01 7.324178516864776611e-02
-4.132760465145111084e-01 2.141019850969314575e-01 6.258398294448852539e-02
-4.139303863048553467e-01 2.589593827724456787e-01 5.291374027729034424e-02
-4.133413434028625488e-01 3.138263225555419922e-01 3.615168482065200806e-02
-4.129228293895721436e-01 3.556752502918243408e-01 4.425760358572006226e-02
-4.143041372299194336e-01 3.836325407028198242e-01 8.449127525091171265e-02
-4.283433556556701660e-01 4.138881564140319824e-01 1.231754198670387268e-01
-4.080587923526763916e-01 5.214408040046691895e-02 8.233260363340377808e-02
-4.100168347358703613e-01 1.241646707057952881e-01 3.687679767608642578e-02
-4.115166664123535156e-01 1.814253628253936768e-01 1.483377069234848022e-02
-4.116282165050506592e-01 2.332141399383544922e-01 2.382572740316390991e-03
-4.128617346286773682e-01 2.847569286823272705e-01 -9.035889059305191040e-03
-4.104775488376617432e-01 3.422785401344299316e-01 -2.496149763464927673e-02
-4.099520444869995117e-01 3.871712088584899902e-01 -1.700557023286819458e-02
-4.206196963787078857e-01 4.330858290195465088e-01 1.285427436232566833e-02
-4.108768403530120850e-01 -3.637522459030151367e-03 1.472124457359313965e-02
-4.048504829406738281e-01 7.571136951446533203e-02 1.277958974242210388e-02
-4.049254059791564941e-01 1.435420811176300049e-01 -2.791110798716545105e-02
-4.049293696880340576e-01 2.033766955137252808e-01 -5.342464894056320190e-02
-4.081262052059173584e-01 2.600491642951965332e-01 -6.343382596969604492e-02
-4.116972386837005615e-01 3.195920884609222412e-01 -8.332791924476623535e-02
-4.177344739437103271e-01 3.781899213790893555e-01 -1.029038280248641968e-01
-4.374964535236358643e-01 4.421225786209106445e-01 -7.953296601772308350e-02
-3.982981145381927490e-01 5.407568812370300293e-02 -1.030110344290733337e-01
-4.136139750480651855e-01 1.672443747520446777e-02 -7.069067656993865967e-02
-4.068795442581176758e-01 9.794346988201141357e-02 -7.632943242788314819e-02
-4.148152470588684082e-01 1.688624471426010132e-01 -1.057615578174591064e-01
-4.274957776069641113e-01 2.297721505165100098e-01 -1.108061894774436951e-01
-4.405996799468994141e-01 2.899073362350463867e-01 -1.070495620369911194e-01
-4.547904133796691895e-01 3.579272925853729248e-01 -1.126225888729095459e-01
-4.755898416042327881e-01 4.310358464717864990e-01 -9.836976230144500732e-02
-4.173177778720855713e-01 1.408614367246627808e-01 -1.576136052608489990e-01
-4.416728019714355469e-01 7.318966090679168701e-02 -1.517387032508850098e-01
-4.505156874656677246e-01 5.201607942581176758e-02 -8.424136042594909668e-02
-4.558166265487670898e-01 1.386041045188903809e-01 -8.206150680780410767e-02
-4.665499925613403320e-01 2.114338874816894531e-01 -9.257028996944427490e-02
-4.792918860912322998e-01 2.716604471206665039e-01 -8.650718629360198975e-02
-4.915600717067718506e-01 3.362855017185211182e-01 -7.789756357669830322e-02
-5.057420730590820312e-01 4.057713150978088379e-01 -6.994828581809997559e-02
-4.653477072715759277e-01 2.500613033771514893e-01 -1.920943260192871094e-01
-4.837385118007659912e-01 2.042672187089920044e-01 -1.444034129381179810e-01
-4.935791492462158203e-01 1.446764618158340454e-01 -1.193848103284835815e-01
-4.926206171512603760e-01 1.183872371912002563e-01 -4.237376525998115540e-02
-4.918038845062255859e-01 1.966606527566909790e-01 -3.476002439856529236e-02
-4.950873851776123047e-01 2.615062594413757324e-01 -3.750099986791610718e-02
-4.996178746223449707e-01 3.136735260486602783e-01 -3.241970017552375793e-02
-5.073980689048767090e-01 3.764158189296722412e-01 -2.024403586983680725e-02
-4.929600954055786133e-01 3.468605577945709229e-01 -2.035594582557678223e-01
-5.007209181785583496e-01 3.206251561641693115e-01 -1.192851215600967407e-01
-5.013037919998168945e-01 2.607595622539520264e-01 -8.838690817356109619e-02
-4.979345500469207764e-01 1.955307424068450928e-01 -5.681997910141944885e-02
-4.970148801803588867e-01 1.726973801851272583e-01 2.483344823122024536e-02
-4.963802099227905273e-01 2.410082817077636719e-01 2.816932648420333862e-02
-5.003265142440795898e-01 2.994875609874725342e-01 2.502305805683135986e-02
-5.069332718849182129e-01 3.427595198154449463e-01 2.445537596940994263e-02
1.136721670627593994e-01 -4.216523170471191406e-01 4.492031931877136230e-01
8.437412977218627930e-02 -3.960429430007934570e-01 4.557789266109466553e-01
6.388099491596221924e-02 -3.793025314807891846e-01 4.612671732902526855e-01
4.691606760025024414e-02 -3.643404543399810791e-01 4.651965796947479248e-01
3.555381298065185547e-02 -3.432881534099578857e-01 4.669872522354125977e-01
2.172218263149261475e-02 -3.259150981903076172e-01 4.685180485248565674e-01
8.503273129463195801e-03 -3.104165196418762207e-01 4.699982106685638428e-01
-6.758242845535278320e-03 -2.881965637207031250e-01 4.705953299999237061e-01
8.819229900836944580e-02 -4.281486272811889648e-01 4.317409396171569824e-01
5.836395919322967529e-02 -4.084078967571258545e-01 4.540841281414031982e-01
3.992973268032073975e-02 -3.886035382747650146e-01 4.590019583702087402e-01
2.667362987995147705e-02 -3.737343549728393555e-01 4.627247154712677002e-01
1.349766552448272705e-02 -3.552835285663604736e-01 4.648884832859039307e-01
-1.306325197219848633e-03 -3.355131447315216064e-01 4.663253426551818848e-01
-1.729781925678253174e-02 -3.167353868484497070e-01 4.675280749797821045e-01
-3.358387947082519531e-02 -2.933619022369384766e-01 4.675768017768859863e-01
7.145546376705169678e-02 -4.313608109951019287e-01 4.114014506340026855e-01
3.773966431617736816e-02 -4.201436340808868408e-01 4.483579099178314209e-01
1.896712183952331543e-02 -3.971086144447326660e-01 4.545136690139770508e-01
3.538131713867187500e-03 -3.813994526863098145e-01 4.584437608718872070e-01
-9.636536240577697754e-03 -3.645269572734832764e-01 4.615973234176635742e-01
-2.609243988990783691e-02 -3.459178507328033447e-01 4.631423056125640869e-01
-4.155428707599639893e-02 -3.271212875843048096e-01 4.643659889698028564e-01
-5.482491850852966309e-02 -2.966665625572204590e-01 4.648137092590332031e-01
5.962631106376647949e-02 -4.322800636291503906e-01 3.932757079601287842e-01
2.875921130180358887e-02 -4.266774058341979980e-01 4.337507188320159912e-01
4.344359040260314941e-03 -4.074546396732330322e-01 4.500517547130584717e-01
-1.177679002285003662e-02 -3.899371027946472168e-01 4.539342522621154785e-01
-2.619147300720214844e-02 -3.743136227130889893e-01 4.572390019893646240e-01
-4.195179045200347900e-02 -3.566305637359619141e-01 4.604198634624481201e-01
-5.527782440185546875e-02 -3.375164568424224854e-01 4.620857238769531250e-01
-6.769861280918121338e-02 -3.065811693668365479e-01 4.625959694385528564e-01
4.965041577816009521e-02 -4.333392083644866943e-01 3.596680164337158203e-01
1.848098635673522949e-02 -4.320593178272247314e-01 4.053989350795745850e-01
-8.116081357002258301e-03 -4.219863712787628174e-01 4.401789903640747070e-01
-2.625520527362823486e-02 -4.012864828109741211e-01 4.489005506038665771e-01
-4.192894697189331055e-02 -3.854154348373413086e-01 4.526122808456420898e-01
-5.688424408435821533e-02 -3.687610626220703125e-01 4.570996761322021484e-01
-6.868800520896911621e-02 -3.483874499797821045e-01 4.594843685626983643e-01
-8.009552955627441406e-02 -3.215430378913879395e-01 4.601770341396331787e-01
2.852743864059448242e-02 -4.352643191814422607e-01 3.176122307777404785e-01
1.691460609436035156e-03 -4.324381947517395020e-01 3.607389330863952637e-01
-2.787889540195465088e-02 -4.293261468410491943e-01 4.069369733333587646e-01
-5.079270899295806885e-02 -4.163632392883300781e-01 4.354503154754638672e-01
-6.714358925819396973e-02 -3.975786864757537842e-01 4.438881278038024902e-01
-7.862699031829833984e-02 -3.800445199012756348e-01 4.491569399833679199e-01
-8.945165574550628662e-02 -3.592463135719299316e-01 4.538324475288391113e-01
-1.034351587295532227e-01 -3.359348475933074951e-01 4.555357098579406738e-01
-2.800449728965759277e-03 -4.354674816131591797e-01 2.523682117462158203e-01
-3.764273226261138916e-02 -4.331369996070861816e-01 3.093760013580322266e-01
-7.138347625732421875e-02 -4.323073029518127441e-01 3.565107285976409912e-01
-8.998126536607742310e-02 -4.257782995700836182e-01 4.080279171466827393e-01
-9.940110146999359131e-02 -4.115576148033142090e-01 4.300502538681030273e-01
-1.088719069957733154e-01 -3.904069364070892334e-01 4.381498396396636963e-01
-1.185075193643569946e-01 -3.719682693481445312e-01 4.434219896793365479e-01
-1.305922418832778931e-01 -3.460793197154998779e-01 4.469842910766601562e-01
-5.637989938259124756e-02 -4.333327114582061768e-01 1.731658875942230225e-01
-9.609934687614440918e-02 -4.364924430847167969e-01 2.375002652406692505e-01
-1.201315522193908691e-01 -4.325764179229736328e-01 2.934716641902923584e-01
-1.331314146518707275e-01 -4.322754740715026855e-01 3.537096381187438965e-01
-1.420852690935134888e-01 -4.224090874195098877e-01 4.076036810874938965e-01
-1.479707360267639160e-01 -4.019959568977355957e-01 4.245869517326354980e-01
-1.566308736801147461e-01 -3.835636973381042480e-01 4.291328787803649902e-01
-1.748606860637664795e-01 -3.595831990242004395e-01 4.329110980033874512e-01
-2.782364189624786377e-01 -1.923713982105255127e-01 -3.580139577388763428e-01
-3.006489574909210205e-01 -1.862937211990356445e-01 -2.608045041561126709e-01
-2.852252423763275146e-01 -7.925806194543838501e-02 -2.713067233562469482e-01
-2.803069949150085449e-01 -6.416317075490951538e-03 -3.023416996002197266e-01
-2.825310528278350830e-01 5.675020441412925720e-02 -3.216265141963958740e-01
-2.870226204395294189e-01 1.179478093981742859e-01 -3.350195586681365967e-01
-3.031270503997802734e-01 1.835130453109741211e-01 -3.222771883010864258e-01
-3.413159251213073730e-01 2.242293059825897217e-01 -2.709119617938995361e-01
-2.879106700420379639e-01 -1.390828788280487061e-01 -3.803567588329315186e-01
-3.091101944446563721e-01 -1.865754127502441406e-01 -3.320923447608947754e-01
-3.172146081924438477e-01 -1.470063924789428711e-01 -2.368236780166625977e-01
-3.082517385482788086e-01 -5.373192578554153442e-02 -2.458744347095489502e-01
-3.077259659767150879e-01 9.207909926772117615e-03 -2.693291306495666504e-01
-3.113552629947662354e-01 7.590846717357635498e-02 -2.950373291969299316e-01
-3.256044983863830566e-01 1.474806368350982666e-01 -2.977093160152435303e-01
-3.607464134693145752e-01 2.079824209213256836e-01 -2.685445249080657959e-01
-2.961943447589874268e-01 -8.839633315801620483e-02 -3.843437433242797852e-01
-3.175989687442779541e-01 -1.275683641433715820e-01 -3.562267124652862549e-01
-3.393821418285369873e-01 -1.757588982582092285e-01 -2.968564629554748535e-01
-3.388625085353851318e-01 -1.117333546280860901e-01 -2.226983904838562012e-01
-3.392850160598754883e-01 -3.806674480438232422e-02 -2.214841395616531372e-01
-3.457247614860534668e-01 3.253157809376716614e-02 -2.327765673398971558e-01
-3.565069139003753662e-01 1.042289510369300842e-01 -2.462828457355499268e-01
-3.859845995903015137e-01 1.758727133274078369e-01 -2.492591738700866699e-01
-3.013742268085479736e-01 -3.589532151818275452e-02 -3.834053874015808105e-01
-3.329647481441497803e-01 -7.802871614694595337e-02 -3.555929958820343018e-01
-3.482637703418731689e-01 -1.220511719584465027e-01 -3.251430392265319824e-01
-3.726207613945007324e-01 -1.653517186641693115e-01 -2.491232752799987793e-01
-3.660574257373809814e-01 -8.628595620393753052e-02 -1.993176341056823730e-01
-3.694776594638824463e-01 -1.623299717903137207e-02 -1.954790353775024414e-01
-3.792887330055236816e-01 6.097040697932243347e-02 -2.016688585281372070e-01
-4.035147130489349365e-01 1.326139867305755615e-01 -2.084077894687652588e-01
-2.981050014495849609e-01 1.354328356683254242e-02 -3.844100832939147949e-01
-3.395416736602783203e-01 -2.940097451210021973e-02 -3.558917939662933350e-01
-3.614650964736938477e-01 -7.125014811754226685e-02 -3.241146206855773926e-01
-3.787736892700195312e-01 -1.148980632424354553e-01 -2.953574657440185547e-01
-3.975617289543151855e-01 -1.516076922416687012e-01 -2.078149020671844482e-01
-3.915401995182037354e-01 -6.414686888456344604e-02 -1.758484989404678345e-01
-3.976296484470367432e-01 5.260601639747619629e-03 -1.740924119949340820e-01
-4.197210073471069336e-01 9.006167203187942505e-02 -1.785669028759002686e-01
-2.994513511657714844e-01 5.273349955677986145e-02 -3.829242587089538574e-01
-3.412460684776306152e-01 1.972166448831558228e-02 -3.549120426177978516e-01
-3.693631589412689209e-01 -1.942353695631027222e-02 -3.184731602668762207e-01
-3.884194195270538330e-01 -5.707228928804397583e-02 -2.896913588047027588e-01
-4.079866707324981689e-01 -1.003763601183891296e-01 -2.600474059581756592e-01
-4.206373095512390137e-01 -1.248999610543251038e-01 -1.779166162014007568e-01
-4.202796518802642822e-01 -4.072714596986770630e-02 -1.572880744934082031e-01
-4.392821788787841797e-01 4.146311059594154358e-02 -1.534191966056823730e-01
-3.143060207366943359e-01 8.305621147155761719e-02 -3.778314590454101562e-01
-3.517014980316162109e-01 6.177565827965736389e-02 -3.474057316780090332e-01
-3.791790008544921875e-01 3.753009065985679626e-02 -3.113948702812194824e-01
-4.000973701477050781e-01 5.092812702059745789e-03 -2.801395058631896973e-01
-4.099338352680206299e-01 -3.566051274538040161e-02 -2.618775665760040283e-01
-4.345838129520416260e-01 -7.886376231908798218e-02 -2.316909432411193848e-01
-4.491781294345855713e-01 -9.367205947637557983e-02 -1.521136462688446045e-01
-4.581281840801239014e-01 -4.057338461279869080e-03 -1.347746700048446655e-01
-3.365941345691680908e-01 1.111654564738273621e-01 -3.808353543281555176e-01
-3.616563677787780762e-01 9.557487815618515015e-02 -3.441467285156250000e-01
-3.910927176475524902e-01 8.198073506355285645e-02 -3.078300952911376953e-01
-4.161528050899505615e-01 6.382328271865844727e-02 -2.772577106952667236e-01
-4.330211281776428223e-01 2.796371281147003174e-02 -2.491381019353866577e-01
-4.460603296756744385e-01 -1.805486902594566345e-02 -2.362484037876129150e-01
-4.696083068847656250e-01 -6.002964824438095093e-02 -2.060568332672119141e-01
-4.892064034938812256e-01 -6.281437724828720093e-02 -1.296452283859252930e-01
5.362255573272705078e-01 3.250524997711181641e-01 1.075992360711097717e-01
5.376031398773193359e-01 3.291858136653900146e-01 1.060340926051139832e-01
5.376657247543334961e-01 3.313021659851074219e-01 1.045135855674743652e-01
5.370349287986755371e-01 3.325383663177490234e-01 1.035908162593841553e-01
5.363770723342895508e-01 3.339267075061798096e-01 1.030525714159011841e-01
5.358115434646606445e-01 3.360814154148101807e-01 1.035455912351608276e-01
5.350239872932434082e-01 3.388587534427642822e-01 1.056500896811485291e-01
5.332949161529541016e-01 3.417177498340606689e-01 1.062173172831535339e-01
5.372183918952941895e-01 3.220425248146057129e-01 1.032281070947647095e-01
5.380395054817199707e-01 3.275683522224426270e-01 1.012949198484420776e-01
5.378561615943908691e-01 3.295315206050872803e-01 9.927092492580413818e-02
5.373596549034118652e-01 3.304215669631958008e-01 9.756611287593841553e-02
5.370076298713684082e-01 3.314751684665679932e-01 9.712123870849609375e-02
5.364851951599121094e-01 3.328593373298645020e-01 9.796684980392456055e-02
5.355707406997680664e-01 3.361164033412933350e-01 9.927660226821899414e-02
5.339700579643249512e-01 3.405207097530364990e-01 9.936021268367767334e-02
5.373095870018005371e-01 3.183884620666503906e-01 9.852762520313262939e-02
5.381864309310913086e-01 3.253417611122131348e-01 9.538747370243072510e-02
5.381870865821838379e-01 3.277937173843383789e-01 9.304872155189514160e-02
5.378319025039672852e-01 3.287501335144042969e-01 9.111568331718444824e-02
5.375941991806030273e-01 3.297961950302124023e-01 9.093014895915985107e-02
5.371350049972534180e-01 3.313226103782653809e-01 9.249787032604217529e-02
5.362028479576110840e-01 3.334735035896301270e-01 9.344597160816192627e-02
5.343900322914123535e-01 3.390151262283325195e-01 9.451569616794586182e-02
5.371134281158447266e-01 3.140215575695037842e-01 9.108155965805053711e-02
5.380573272705078125e-01 3.227039873600006104e-01 9.063501656055450439e-02
5.383411645889282227e-01 3.263880312442779541e-01 8.767683804035186768e-02
5.380558371543884277e-01 3.276553750038146973e-01 8.558724075555801392e-02
5.378316640853881836e-01 3.287574648857116699e-01 8.559757471084594727e-02
5.373179912567138672e-01 3.304370045661926270e-01 8.680517971515655518e-02
5.365975499153137207e-01 3.322530388832092285e-01 8.841235190629959106e-02
5.347725152969360352e-01 3.370237648487091064e-01 8.992806077003479004e-02
5.360894203186035156e-01 3.069446086883544922e-01 8.104494959115982056e-02
5.378436446189880371e-01 3.196698725223541260e-01 8.465979993343353271e-02
5.382952690124511719e-01 3.249398171901702881e-01 8.357354998588562012e-02
5.382398962974548340e-01 3.271164000034332275e-01 8.189402520656585693e-02
5.379169583320617676e-01 3.284954428672790527e-01 8.211980760097503662e-02
5.374095439910888672e-01 3.299507796764373779e-01 8.239401131868362427e-02
5.366590023040771484e-01 3.318214118480682373e-01 8.402560651302337646e-02
5.351506471633911133e-01 3.355650603771209717e-01 8.672143518924713135e-02
5.337898731231689453e-01 2.941935956478118896e-01 7.094636559486389160e-02
5.372115969657897949e-01 3.136223256587982178e-01 7.292686402797698975e-02
5.379983782768249512e-01 3.230443596839904785e-01 7.785806804895401001e-02
5.380926728248596191e-01 3.267528414726257324e-01 7.864098250865936279e-02
5.377993583679199219e-01 3.285301029682159424e-01 7.898928225040435791e-02
5.373601317405700684e-01 3.298714458942413330e-01 8.020852506160736084e-02
5.365673899650573730e-01 3.316980600357055664e-01 8.110452443361282349e-02
5.352664589881896973e-01 3.349845409393310547e-01 8.336539566516876221e-02
5.309078693389892578e-01 2.710484266281127930e-01 5.288596078753471375e-02
5.358036756515502930e-01 3.051475882530212402e-01 5.272127687931060791e-02
5.373737812042236328e-01 3.192860484123229980e-01 6.397631764411926270e-02
5.376021862030029297e-01 3.260979354381561279e-01 7.014586031436920166e-02
5.373522043228149414e-01 3.287214934825897217e-01 7.194980978965759277e-02
5.369068384170532227e-01 3.300450742244720459e-01 7.376591116189956665e-02
5.363365411758422852e-01 3.319258391857147217e-01 7.606196403503417969e-02
5.352802872657775879e-01 3.347822427749633789e-01 7.981248944997787476e-02
5.292270779609680176e-01 2.100895643234252930e-01 3.440454974770545959e-02
5.345283150672912598e-01 2.880842685699462891e-01 3.435808420181274414e-02
5.367361903190612793e-01 3.103073239326477051e-01 3.849140182137489319e-02
5.372951030731201172e-01 3.220609426498413086e-01 5.409023538231849670e-02
5.369431376457214355e-01 3.279006481170654297e-01 6.280026584863662720e-02
5.365040302276611328e-01 3.299503028392791748e-01 6.683234870433807373e-02
5.358619689941406250e-01 3.317925035953521729e-01 7.202553749084472656e-02
5.344492793083190918e-01 3.343172073364257812e-01 7.581421732902526855e-02
5.270684957504272461e-01 3.252409696578979492e-01 1.739717125892639160e-01
5.277633070945739746e-01 3.310786187648773193e-01 1.668390780687332153e-01
5.282231569290161133e-01 3.348405659198760986e-01 1.605308800935745239e-01
5.283120870590209961e-01 3.364386856555938721e-01 1.568485945463180542e-01
5.282803773880004883e-01 3.393059372901916504e-01 1.564232707023620605e-01
5.274935364723205566e-01 3.446375131607055664e-01 1.611915230751037598e-01
5.250859856605529785e-01 3.516288995742797852e-01 1.708889603614807129e-01
5.210330486297607422e-01 3.674200773239135742e-01 1.788201928138732910e-01
5.273221731185913086e-01 3.223408758640289307e-01 1.539756804704666138e-01
5.265968441963195801e-01 3.293371200561523438e-01 1.489701420068740845e-01
5.255866646766662598e-01 3.323224782943725586e-01 1.516013145446777344e-01
5.253247022628784180e-01 3.331241607666015625e-01 1.532486379146575928e-01
5.252369046211242676e-01 3.339837491512298584e-01 1.551842838525772095e-01
5.249181985855102539e-01 3.372815847396850586e-01 1.598532646894454956e-01
5.221840143203735352e-01 3.448773026466369629e-01 1.722247004508972168e-01
5.173236727714538574e-01 3.568269908428192139e-01 1.853271424770355225e-01
5.272047519683837891e-01 3.178337216377258301e-01 1.410237401723861694e-01
5.255457162857055664e-01 3.255871236324310303e-01 1.466747075319290161e-01
5.251430273056030273e-01 3.298664093017578125e-01 1.515671759843826294e-01
5.246726870536804199e-01 3.320408761501312256e-01 1.565816998481750488e-01
5.239974856376647949e-01 3.331794738769531250e-01 1.606623232364654541e-01
5.230026245117187500e-01 3.347990512847900391e-01 1.663430482149124146e-01
5.203688740730285645e-01 3.405033946037292480e-01 1.767359673976898193e-01
5.156553983688354492e-01 3.511873185634613037e-01 1.913413405418395996e-01
5.268291234970092773e-01 3.120905756950378418e-01 1.393703967332839966e-01
5.246889591217041016e-01 3.217548727989196777e-01 1.489337682723999023e-01
5.242587327957153320e-01 3.276803791522979736e-01 1.561750024557113647e-01
5.238560438156127930e-01 3.313102126121520996e-01 1.619825661182403564e-01
5.231266617774963379e-01 3.325882256031036377e-01 1.654096394777297974e-01
5.221596360206604004e-01 3.338707983493804932e-01 1.699810773134231567e-01
5.194292068481445312e-01 3.372138738632202148e-01 1.795004010200500488e-01
5.147774219512939453e-01 3.473642170429229736e-01 1.951559484004974365e-01
5.258654356002807617e-01 3.078747987747192383e-01 1.436324566602706909e-01
5.235301852226257324e-01 3.200514614582061768e-01 1.541883796453475952e-01
5.233098864555358887e-01 3.266403675079345703e-01 1.610148847103118896e-01
5.229777693748474121e-01 3.313643634319305420e-01 1.671962440013885498e-01
5.224000811576843262e-01 3.322546780109405518e-01 1.697612702846527100e-01
5.210559368133544922e-01 3.336583077907562256e-01 1.749530434608459473e-01
5.183472633361816406e-01 3.360641598701477051e-01 1.840372979640960693e-01
5.139960050582885742e-01 3.418056368827819824e-01 1.981417536735534668e-01
5.246621966361999512e-01 2.990635037422180176e-01 1.521282047033309937e-01
5.222936272621154785e-01 3.164056241512298584e-01 1.585735082626342773e-01
5.222600102424621582e-01 3.248422145843505859e-01 1.650753468275070190e-01
5.222957730293273926e-01 3.300044238567352295e-01 1.701041311025619507e-01
5.217018127441406250e-01 3.318490386009216309e-01 1.735390275716781616e-01
5.202423334121704102e-01 3.331370651721954346e-01 1.785962581634521484e-01
5.173147916793823242e-01 3.353054523468017578e-01 1.876197457313537598e-01
5.112382769584655762e-01 3.398397564888000488e-01 2.018693983554840088e-01
5.239136219024658203e-01 2.815271317958831787e-01 1.572546958923339844e-01
5.205417871475219727e-01 3.069999217987060547e-01 1.692981719970703125e-01
5.200520753860473633e-01 3.185840547084808350e-01 1.741166859865188599e-01
5.206295847892761230e-01 3.255719840526580811e-01 1.758893132209777832e-01
5.205954909324645996e-01 3.293692767620086670e-01 1.790161430835723877e-01
5.186893939971923828e-01 3.307429552078247070e-01 1.866280436515808105e-01
5.142379999160766602e-01 3.328795731067657471e-01 1.972040832042694092e-01
5.050823688507080078e-01 3.387287259101867676e-01 2.132021039724349976e-01
5.226953625679016113e-01 2.793033123016357422e-01 1.526320278644561768e-01
5.200757980346679688e-01 2.934060692787170410e-01 1.838536858558654785e-01
5.193212032318115234e-01 3.114480972290039062e-01 1.876100003719329834e-01
5.194890499114990234e-01 3.193553388118743896e-01 1.890802979469299316e-01
5.184426307678222656e-01 3.237184584140777588e-01 1.923733353614807129e-01
5.131265521049499512e-01 3.258377909660339355e-01 2.017803490161895752e-01
5.060186982154846191e-01 3.287056088447570801e-01 2.139786183834075928e-01
4.974871277809143066e-01 3.375502228736877441e-01 2.271975874900817871e-01
2.936508655548095703e-01 4.114301800727844238e-01 -2.923836112022399902e-01
2.706728577613830566e-01 4.114043712615966797e-01 -2.620682120323181152e-01
2.510350346565246582e-01 4.109228849411010742e-01 -2.301929146051406860e-01
2.294904589653015137e-01 4.105463325977325439e-01 -1.969089508056640625e-01
2.026174664497375488e-01 4.097687304019927979e-01 -1.591629981994628906e-01
1.701765507459640503e-01 4.095216989517211914e-01 -1.185488402843475342e-01
1.363100111484527588e-01 4.098422527313232422e-01 -7.553237676620483398e-02
1.034173220396041870e-01 4.099351763725280762e-01 -3.449288010597229004e-02
2.636303603649139404e-01 4.113655984401702881e-01 -3.124776780605316162e-01
2.377679646015167236e-01 4.111726284027099609e-01 -2.853685319423675537e-01
2.140419930219650269e-01 4.107453227043151855e-01 -2.558896243572235107e-01
1.920759230852127075e-01 4.102696478366851807e-01 -2.241574078798294067e-01
1.651775538921356201e-01 4.097796380519866943e-01 -1.917763501405715942e-01
1.336993128061294556e-01 4.095825552940368652e-01 -1.534687280654907227e-01
1.010764241218566895e-01 4.100732505321502686e-01 -1.089157164096832275e-01
6.830430030822753906e-02 4.097431898117065430e-01 -6.753674149513244629e-02
2.343290150165557861e-01 4.118375778198242188e-01 -3.353421986103057861e-01
2.042887955904006958e-01 4.110779166221618652e-01 -3.084086179733276367e-01
1.845913529396057129e-01 4.106449484825134277e-01 -2.798882424831390381e-01
1.627749949693679810e-01 4.101325571537017822e-01 -2.480210363864898682e-01
1.350133568048477173e-01 4.097139239311218262e-01 -2.184629440307617188e-01
1.018919348716735840e-01 4.096325039863586426e-01 -1.839497685432434082e-01
6.785616278648376465e-02 4.101500809192657471e-01 -1.404509991407394409e-01
2.789433300495147705e-02 4.100630879402160645e-01 -9.692773222923278809e-02
2.035665661096572876e-01 4.120337069034576416e-01 -3.570472598075866699e-01
1.780173927545547485e-01 4.113417267799377441e-01 -3.277004957199096680e-01
1.557090133428573608e-01 4.105280637741088867e-01 -2.997706532478332520e-01
1.310492753982543945e-01 4.101370871067047119e-01 -2.711869478225708008e-01
1.035858541727066040e-01 4.096164107322692871e-01 -2.425376027822494507e-01
7.247708737850189209e-02 4.097329378128051758e-01 -2.096017450094223022e-01
3.554503619670867920e-02 4.101507067680358887e-01 -1.700519472360610962e-01
-1.787778735160827637e-02 4.103215634822845459e-01 -1.239570975303649902e-01
1.754711270332336426e-01 4.118227660655975342e-01 -3.738569021224975586e-01
1.523934602737426758e-01 4.116638898849487305e-01 -3.450057506561279297e-01
1.276999711990356445e-01 4.107179045677185059e-01 -3.187175393104553223e-01
1.033505648374557495e-01 4.100126624107360840e-01 -2.942436933517456055e-01
7.628068327903747559e-02 4.095563888549804688e-01 -2.668529152870178223e-01
3.954844176769256592e-02 4.098746776580810547e-01 -2.329831868410110474e-01
-6.966352462768554688e-03 4.101326465606689453e-01 -1.969283074140548706e-01
-6.082904338836669922e-02 4.103266298770904541e-01 -1.526881605386734009e-01
1.393373161554336548e-01 4.120255410671234131e-01 -3.906210958957672119e-01
1.143054068088531494e-01 4.114688336849212646e-01 -3.635627627372741699e-01
9.005828201770782471e-02 4.108710587024688721e-01 -3.377435505390167236e-01
6.374739110469818115e-02 4.101121723651885986e-01 -3.132584691047668457e-01
2.920182049274444580e-02 4.098640978336334229e-01 -2.862021625041961670e-01
-1.663805544376373291e-02 4.103935956954956055e-01 -2.559833526611328125e-01
-6.312692165374755859e-02 4.107589125633239746e-01 -2.198697924613952637e-01
-1.203757226467132568e-01 4.107787609100341797e-01 -1.735166907310485840e-01
8.713440597057342529e-02 4.120081961154937744e-01 -4.119423031806945801e-01
6.276386976242065430e-02 4.114715754985809326e-01 -3.822864294052124023e-01
3.640002012252807617e-02 4.108824133872985840e-01 -3.568181097507476807e-01
4.143178462982177734e-03 4.108080863952636719e-01 -3.340414762496948242e-01
-3.606483340263366699e-02 4.109573960304260254e-01 -3.037761449813842773e-01
-8.120715618133544922e-02 4.112777709960937500e-01 -2.708581387996673584e-01
-1.280724406242370605e-01 4.115724563598632812e-01 -2.376130372285842896e-01
-1.797875165939331055e-01 4.105440974235534668e-01 -1.911545693874359131e-01
2.779096364974975586e-02 4.142616987228393555e-01 -4.344276785850524902e-01
-4.977583885192871094e-04 4.124014973640441895e-01 -4.026570916175842285e-01
-3.119260072708129883e-02 4.114006757736206055e-01 -3.733190298080444336e-01
-6.627351045608520508e-02 4.116229116916656494e-01 -3.478319644927978516e-01
-1.087428033351898193e-01 4.120366275310516357e-01 -3.185547292232513428e-01
-1.481658220291137695e-01 4.117791652679443359e-01 -2.857613861560821533e-01
-1.891622245311737061e-01 4.109787344932556152e-01 -2.510225474834442139e-01
-2.377816736698150635e-01 4.100235402584075928e-01 -2.111006528139114380e-01
-4.056191444396972656e-01 2.053828537464141846e-02 -8.363395929336547852e-02
-4.079923033714294434e-01 8.150747418403625488e-02 -1.000601649284362793e-01
-4.083209633827209473e-01 1.376257538795471191e-01 -1.068739145994186401e-01
-4.087585210800170898e-01 1.875611841678619385e-01 -1.123604848980903625e-01
-4.110475778579711914e-01 2.411967664957046509e-01 -1.123108640313148499e-01
-4.124402999877929688e-01 2.941231727600097656e-01 -1.048570871353149414e-01
-4.147970676422119141e-01 3.360536694526672363e-01 -7.824476063251495361e-02
-4.286444485187530518e-01 3.601241111755371094e-01 -4.397556185722351074e-02
-3.986089229583740234e-01 -3.611974418163299561e-02 -1.171926185488700867e-01
-3.983768224716186523e-01 4.353851079940795898e-02 -1.441241204738616943e-01
-3.971082866191864014e-01 1.046804189682006836e-01 -1.594534218311309814e-01
-3.969915807247161865e-01 1.629147231578826904e-01 -1.626074016094207764e-01
-3.981079161167144775e-01 2.216133773326873779e-01 -1.624293029308319092e-01
-3.974429666996002197e-01 2.820223867893218994e-01 -1.637821793556213379e-01
-3.956610858440399170e-01 3.402813673019409180e-01 -1.512527763843536377e-01
-4.098881781101226807e-01 3.809382617473602295e-01 -1.093226373195648193e-01
-3.987270593643188477e-01 -1.096296757459640503e-01 -1.426506787538528442e-01
-3.870189487934112549e-01 -3.038346767425537109e-03 -1.643065512180328369e-01
-3.860362172126770020e-01 6.881918013095855713e-02 -1.862834841012954712e-01
-3.840124607086181641e-01 1.332258135080337524e-01 -2.080643624067306519e-01
-3.821086883544921875e-01 1.938534677028656006e-01 -2.143299579620361328e-01
-3.824447691440582275e-01 2.610294818878173828e-01 -2.207590192556381226e-01
-3.802598714828491211e-01 3.241241872310638428e-01 -2.227822393178939819e-01
-3.970064222812652588e-01 3.877329230308532715e-01 -1.939826309680938721e-01
-3.795793652534484863e-01 -9.993849694728851318e-02 -2.410912513732910156e-01
-3.826248049736022949e-01 -7.513138651847839355e-02 -1.774557381868362427e-01
-3.747131228446960449e-01 2.572977542877197266e-02 -2.185326218605041504e-01
-3.765935599803924561e-01 1.018366515636444092e-01 -2.501713335514068604e-01
-3.806822299957275391e-01 1.618206799030303955e-01 -2.650785744190216064e-01
-3.881477415561676025e-01 2.233355939388275146e-01 -2.655677497386932373e-01
-3.964435756206512451e-01 2.921758890151977539e-01 -2.658975720405578613e-01
-4.182285964488983154e-01 3.632744550704956055e-01 -2.329716235399246216e-01
-3.742619156837463379e-01 -2.815762162208557129e-02 -2.991353571414947510e-01
-3.906661272048950195e-01 -8.699019253253936768e-02 -2.831703424453735352e-01
-3.895768523216247559e-01 -4.191374778747558594e-02 -2.200849503278732300e-01
-3.967200517654418945e-01 5.706118047237396240e-02 -2.403071671724319458e-01
-4.058181047439575195e-01 1.292092800140380859e-01 -2.559179067611694336e-01
-4.168373942375183105e-01 1.866452097892761230e-01 -2.503450810909271240e-01
-4.290031790733337402e-01 2.523662149906158447e-01 -2.357750385999679565e-01
-4.478130936622619629e-01 3.318749666213989258e-01 -2.215169519186019897e-01
-3.998961448669433594e-01 5.344527959823608398e-02 -3.145054578781127930e-01
-4.203509092330932617e-01 1.001240313053131104e-02 -2.978917062282562256e-01
-4.357871711254119873e-01 -4.046696424484252930e-02 -2.511221468448638916e-01
-4.342846274375915527e-01 1.895548403263092041e-02 -1.916044205427169800e-01
-4.374365806579589844e-01 1.006281003355979919e-01 -1.972312331199645996e-01
-4.432227015495300293e-01 1.658944487571716309e-01 -2.055468410253524780e-01
-4.533202946186065674e-01 2.224766761064529419e-01 -1.974333226680755615e-01
-4.717600345611572266e-01 2.976863980293273926e-01 -1.858467161655426025e-01
-4.258274137973785400e-01 1.412324607372283936e-01 -3.126507401466369629e-01
-4.485762119293212891e-01 1.185803562402725220e-01 -2.787117660045623779e-01
-4.587381482124328613e-01 7.256668806076049805e-02 -2.571080625057220459e-01
-4.646321237087249756e-01 1.878283917903900146e-02 -2.047372013330459595e-01
-4.621817767620086670e-01 7.189197838306427002e-02 -1.558223217725753784e-01
-4.644458889961242676e-01 1.440978646278381348e-01 -1.584360301494598389e-01
-4.759933352470397949e-01 2.055579274892807007e-01 -1.662488281726837158e-01
-4.930101037025451660e-01 2.710550427436828613e-01 -1.617554128170013428e-01
-4.371348023414611816e-01 2.228628695011138916e-01 -3.145447075366973877e-01
-4.564166069030761719e-01 2.068393081426620483e-01 -2.747400999069213867e-01
-4.639126360416412354e-01 1.780352294445037842e-01 -2.457005679607391357e-01
-4.684440195560455322e-01 1.252897083759307861e-01 -2.260614931583404541e-01
-4.770400524139404297e-01 6.675204634666442871e-02 -1.800615936517715454e-01
-4.807552993297576904e-01 1.138381138443946838e-01 -1.303271204233169556e-01
-4.892250895500183105e-01 1.857950985431671143e-01 -1.293161660432815552e-01
-5.052363872528076172e-01 2.457597702741622925e-01 -1.313545405864715576e-01
7.426589727401733398e-03 4.460079073905944824e-01 -3.614750802516937256e-01
-5.925682187080383301e-02 4.408685564994812012e-01 -3.436135649681091309e-01
-1.252343356609344482e-01 4.424561262130737305e-01 -2.899917960166931152e-01
-1.931754499673843384e-01 4.464851617813110352e-01 -2.496066093444824219e-01
-2.549428045749664307e-01 4.784473478794097900e-01 -2.880150377750396729e-01
-2.979989349842071533e-01 5.486232638359069824e-01 -3.582344651222229004e-01
-3.431206643581390381e-01 5.823221802711486816e-01 -3.251231610774993896e-01
-4.124935865402221680e-01 5.837085247039794922e-01 -2.283062636852264404e-01
-7.639029622077941895e-02 4.505751430988311768e-01 -3.862396478652954102e-01
-1.414899677038192749e-01 4.431232511997222900e-01 -3.658311367034912109e-01
-2.062648683786392212e-01 4.472553431987762451e-01 -3.363159894943237305e-01
-2.743554115295410156e-01 4.493970274925231934e-01 -2.785584926605224609e-01
-3.300937116146087646e-01 4.536850750446319580e-01 -2.456082403659820557e-01
-3.542037010192871094e-01 4.988030493259429932e-01 -2.942750453948974609e-01
-3.887127935886383057e-01 5.565207600593566895e-01 -3.416082859039306641e-01
-4.367820620536804199e-01 5.971717834472656250e-01 -2.830134630203247070e-01
-1.282702237367630005e-01 4.549483656883239746e-01 -3.929052650928497314e-01
-2.039509862661361694e-01 4.489559829235076904e-01 -3.708434998989105225e-01
-2.668201923370361328e-01 4.487302303314208984e-01 -3.439659178256988525e-01
-3.160795271396636963e-01 4.505936205387115479e-01 -3.147819042205810547e-01
-3.558019101619720459e-01 4.490836560726165771e-01 -2.515023946762084961e-01
-3.841378986835479736e-01 4.600166380405426025e-01 -2.206911444664001465e-01
-4.095419049263000488e-01 5.188475847244262695e-01 -2.721188664436340332e-01
-4.460222721099853516e-01 5.758006572723388672e-01 -3.111933171749114990e-01
-1.812738031148910522e-01 4.563821852207183838e-01 -3.996661305427551270e-01
-2.490474432706832886e-01 4.537825584411621094e-01 -3.748081624507904053e-01
-2.980529367923736572e-01 4.522849023342132568e-01 -3.483285307884216309e-01
-3.320710659027099609e-01 4.486902654170989990e-01 -3.245100975036621094e-01
-3.646320104598999023e-01 4.496735036373138428e-01 -2.851098775863647461e-01
-3.959279060363769531e-01 4.486755728721618652e-01 -2.163384556770324707e-01
-4.236103892326354980e-01 4.791547656059265137e-01 -2.053293883800506592e-01
-4.482050538063049316e-01 5.436208248138427734e-01 -2.679783105850219727e-01
-2.307520657777786255e-01 4.592937827110290527e-01 -4.027646780014038086e-01
-2.941777706146240234e-01 4.555057287216186523e-01 -3.769824802875518799e-01
-3.216879367828369141e-01 4.550987482070922852e-01 -3.488525152206420898e-01
-3.480881750583648682e-01 4.521329998970031738e-01 -3.291159868240356445e-01
-3.738878071308135986e-01 4.485498070716857910e-01 -3.050148189067840576e-01
-4.058729410171508789e-01 4.492036104202270508e-01 -2.445053756237030029e-01
-4.322677254676818848e-01 4.548046290874481201e-01 -1.761454343795776367e-01
-4.503365755081176758e-01 5.011653304100036621e-01 -2.041646242141723633e-01
-2.703065872192382812e-01 4.622814953327178955e-01 -4.085437059402465820e-01
-3.220796585083007812e-01 4.571422934532165527e-01 -3.825433850288391113e-01
-3.473607003688812256e-01 4.557930231094360352e-01 -3.562496006488800049e-01
-3.688763082027435303e-01 4.555493593215942383e-01 -3.319776654243469238e-01
-3.945137858390808105e-01 4.516164958477020264e-01 -3.096558153629302979e-01
-4.215837121009826660e-01 4.464858770370483398e-01 -2.706394195556640625e-01
-4.370094835758209229e-01 4.521857202053070068e-01 -2.070039212703704834e-01
-4.553573727607727051e-01 4.694918990135192871e-01 -1.623443514108657837e-01
-2.994937896728515625e-01 4.792082011699676514e-01 -4.105277359485626221e-01
-3.363877236843109131e-01 4.664140939712524414e-01 -3.878983855247497559e-01
-3.686838746070861816e-01 4.586786329746246338e-01 -3.598324656486511230e-01
-3.949598371982574463e-01 4.582298994064331055e-01 -3.324173688888549805e-01
-4.152454137802124023e-01 4.557768106460571289e-01 -3.072151541709899902e-01
-4.329189658164978027e-01 4.518117010593414307e-01 -2.789259850978851318e-01
