-4.209916293621063232e-01 7.841584682464599609e-01 -1.252409219741821289e-01
-4.281280338764190674e-01 8.260363936424255371e-01 -1.095450967550277710e-01
-3.906699717044830322e-01 6.211318969726562500e-01 -1.830487251281738281e-01
-3.944199681282043457e-01 6.516661643981933594e-01 -1.730740368366241455e-01
-4.011115133762359619e-01 6.768531799316406250e-01 -1.617195308208465576e-01
-4.083379507064819336e-01 6.998659372329711914e-01 -1.501087099313735962e-01
-4.141272008419036865e-01 7.149511575698852539e-01 -1.387653052806854248e-01
-4.216728210449218750e-01 7.326176762580871582e-01 -1.231046020984649658e-01
-4.297275543212890625e-01 7.624715566635131836e-01 -1.044978946447372437e-01
-4.354091882705688477e-01 8.052200675010681152e-01 -9.219459444284439087e-02
-3.959949314594268799e-01 5.971825122833251953e-01 -1.684444695711135864e-01
-4.012568295001983643e-01 6.296662092208862305e-01 -1.585018634796142578e-01
-4.070747196674346924e-01 6.537938714027404785e-01 -1.512898951768875122e-01
-4.145407974720001221e-01 6.761397719383239746e-01 -1.384806334972381592e-01
-4.219519197940826416e-01 6.956194639205932617e-01 -1.230526641011238098e-01
-4.301550090312957764e-01 7.138370871543884277e-01 -1.049333661794662476e-01
-4.355084300041198730e-01 7.408949136734008789e-01 -8.898673951625823975e-02
-4.419398009777069092e-01 7.815859913825988770e-01 -7.796514034271240234e-02
-4.014478325843811035e-01 5.655768513679504395e-01 -1.541678756475448608e-01
-4.078468680381774902e-01 6.057816147804260254e-01 -1.457896828651428223e-01
-4.139665663242340088e-01 6.277052760124206543e-01 -1.366636455059051514e-01
-4.216652512550354004e-01 6.471594572067260742e-01 -1.247520521283149719e-01
-4.284748435020446777e-01 6.673752665519714355e-01 -1.129058301448822021e-01
-4.343696236610412598e-01 6.939468383789062500e-01 -9.504844993352890015e-02
-4.393135905265808105e-01 7.186526656150817871e-01 -8.161838352680206299e-02
-4.447426795959472656e-01 7.530314922332763672e-01 -7.066481560468673706e-02
-4.071968793869018555e-01 5.221798419952392578e-01 -1.409987807273864746e-01
-4.166509509086608887e-01 5.718807578086853027e-01 -1.279705464839935303e-01
-4.229746460914611816e-01 5.997976660728454590e-01 -1.185907572507858276e-01
-4.292149543762207031e-01 6.189776659011840820e-01 -1.092045456171035767e-01
-4.334923624992370605e-01 6.416664123535156250e-01 -9.921744465827941895e-02
-4.389030337333679199e-01 6.668981313705444336e-01 -8.556949347257614136e-02
-4.430669844150543213e-01 6.956646442413330078e-01 -7.522790879011154175e-02
-4.470744132995605469e-01 7.251908779144287109e-01 -6.350392103195190430e-02
-4.034430086612701416e-01 5.508994460105895996e-01 -1.540345251560211182e-01
-4.264718592166900635e-01 5.342557430267333984e-01 -1.065665781497955322e-01
-4.320915043354034424e-01 5.723817944526672363e-01 -9.518033266067504883e-02
-4.363601207733154297e-01 6.012833714485168457e-01 -8.585160225629806519e-02
-4.401481449604034424e-01 6.224486827850341797e-01 -7.828348129987716675e-02
-4.438926279544830322e-01 6.420309543609619141e-01 -7.075182348489761353e-02
-4.466765820980072021e-01 6.689898371696472168e-01 -6.111268699169158936e-02
-4.484774470329284668e-01 6.973414421081542969e-01 -5.260559916496276855e-02
-4.011347591876983643e-01 5.958122611045837402e-01 -1.425473839044570923e-01
-4.243398606777191162e-01 5.544686913490295410e-01 -1.072077006101608276e-01
-4.403243958950042725e-01 5.460859537124633789e-01 -6.699706614017486572e-02
-4.431117177009582520e-01 5.796728134155273438e-01 -5.921582877635955811e-02
-4.449239969253540039e-01 6.047168970108032227e-01 -5.686949193477630615e-02
-4.463408589363098145e-01 6.257898807525634766e-01 -5.258990824222564697e-02
-4.475599825382232666e-01 6.462506055831909180e-01 -4.720372706651687622e-02
-4.491141140460968018e-01 6.721811294555664062e-01 -4.074034839868545532e-02
-4.657495617866516113e-01 1.438126415014266968e-01 6.419675797224044800e-02
-4.661500453948974609e-01 1.879050731658935547e-01 5.891473591327667236e-02
-4.664340615272521973e-01 2.214991450309753418e-01 5.977025628089904785e-02
-4.660659432411193848e-01 2.623089551925659180e-01 6.116995215415954590e-02
-4.656326472759246826e-01 2.990466058254241943e-01 6.362410634756088257e-02
-4.658177793025970459e-01 3.323411941528320312e-01 6.761255115270614624e-02
-4.658513963222503662e-01 3.529033660888671875e-01 7.439456135034561157e-02
-4.665252268314361572e-01 3.763782978057861328e-01 8.952848613262176514e-02
-4.633004367351531982e-01 1.194979548454284668e-01 4.777979105710983276e-02
-4.624027013778686523e-01 1.660390049219131470e-01 4.020966589450836182e-02
-4.619991779327392578e-01 2.025225460529327393e-01 3.375272452831268311e-02
-4.624677002429962158e-01 2.396609187126159668e-01 3.088276088237762451e-02
-4.631158113479614258e-01 2.795842289924621582e-01 3.433076292276382446e-02
-4.636762440204620361e-01 3.198197185993194580e-01 3.827330470085144043e-02
-4.632512331008911133e-01 3.533690869808197021e-01 4.498028755187988281e-02
-4.633473455905914307e-01 3.836610615253448486e-01 5.216504633426666260e-02
-4.603918194770812988e-01 9.209868311882019043e-02 3.321178257465362549e-02
-4.599334001541137695e-01 1.404681205749511719e-01 2.399399876594543457e-02
-4.610729217529296875e-01 1.790789067745208740e-01 1.843831315636634827e-02
-4.618066847324371338e-01 2.166399806737899780e-01 1.254994794726371765e-02
-4.621848165988922119e-01 2.542175650596618652e-01 1.115676388144493103e-02
-4.624392688274383545e-01 2.947838902473449707e-01 1.503213867545127869e-02
-4.624849855899810791e-01 3.356974720954895020e-01 2.035713195800781250e-02
-4.628674685955047607e-01 3.765521645545959473e-01 2.736598253250122070e-02
-4.581201076507568359e-01 6.830812990665435791e-02 1.441708579659461975e-02
-4.597434401512145996e-01 1.163569390773773193e-01 1.214404776692390442e-02
-4.606394469738006592e-01 1.566731035709381104e-01 5.441255867481231689e-03
-4.610626101493835449e-01 1.932740658521652222e-01 8.084885776042938232e-04
-4.612709283828735352e-01 2.312438637018203735e-01 -4.146173596382141113e-04
-4.614239633083343506e-01 2.696677744388580322e-01 -3.372203558683395386e-03
-4.619307219982147217e-01 3.139454722404479980e-01 -5.050860345363616943e-04
-4.620946645736694336e-01 3.582596182823181152e-01 3.380119800567626953e-03
-4.574077725410461426e-01 4.400087893009185791e-02 1.825395971536636353e-03
-4.590916335582733154e-01 8.930514752864837646e-02 -2.818603068590164185e-03
-4.597873091697692871e-01 1.356469988822937012e-01 -4.726264625787734985e-03
-4.597116112709045410e-01 1.731747686862945557e-01 -8.743245154619216919e-03
-4.599577784538269043e-01 2.069752067327499390e-01 -1.248127594590187073e-02
-4.603085219860076904e-01 2.469258904457092285e-01 -1.525308564305305481e-02
-4.605597853660583496e-01 2.884911894798278809e-01 -2.007617801427841187e-02
-4.601788818836212158e-01 3.371935486793518066e-01 -2.248533442616462708e-02
-4.530278444290161133e-01 3.230503201484680176e-02 -2.359602227807044983e-02
-4.580278098583221436e-01 6.543463468551635742e-02 -1.588476821780204773e-02
-4.583878815174102783e-01 1.112357825040817261e-01 -1.837519556283950806e-02
-4.582971334457397461e-01 1.507939398288726807e-01 -1.814546063542366028e-02
-4.583262801170349121e-01 1.857362240552902222e-01 -2.333762124180793762e-02
-4.586674869060516357e-01 2.212582379579544067e-01 -2.928682416677474976e-02
-4.590553641319274902e-01 2.619317770004272461e-01 -3.704766929149627686e-02
-4.577281177043914795e-01 3.161057829856872559e-01 -4.681472107768058777e-02
-4.500806033611297607e-01 5.390068888664245605e-02 -5.245905369520187378e-02
-4.554650783538818359e-01 5.336791276931762695e-02 -3.334866091609001160e-02
-4.565170109272003174e-01 8.936369419097900391e-02 -2.727578952908515930e-02
-4.558741152286529541e-01 1.245827004313468933e-01 -3.406582027673721313e-02
-4.564988613128662109e-01 1.641959846019744873e-01 -3.708905354142189026e-02
-4.569326341152191162e-01 1.976705938577651978e-01 -4.602572694420814514e-02
-4.549040496349334717e-01 2.347967028617858887e-01 -6.116506457328796387e-02
-4.530688226222991943e-01 2.822711467742919922e-01 -7.144752144813537598e-02
-4.464181363582611084e-01 9.794861823320388794e-02 -7.368822395801544189e-02
-4.537742435932159424e-01 7.832059264183044434e-02 -5.737948790192604065e-02
-4.545859396457672119e-01 8.039966225624084473e-02 -4.841256886720657349e-02
-4.546602070331573486e-01 1.057413667440414429e-01 -4.230812191963195801e-02
-4.524478316307067871e-01 1.384189724922180176e-01 -5.164767429232597351e-02
-4.513932764530181885e-01 1.761456429958343506e-01 -5.710701644420623779e-02
-4.518638551235198975e-01 2.110858261585235596e-01 -6.510284543037414551e-02
-4.537197947502136230e-01 2.538120150566101074e-01 -6.761807948350906372e-02
3.015692532062530518e-02 -4.822084605693817139e-01 5.275217294692993164e-01
7.671490311622619629e-03 -4.518696963787078857e-01 5.293058753013610840e-01
-9.299695491790771484e-03 -4.257542192935943604e-01 5.294182300567626953e-01
-2.481517195701599121e-02 -3.985469341278076172e-01 5.281726717948913574e-01
-3.946723043918609619e-02 -3.678411841392517090e-01 5.264865756034851074e-01
-5.366866290569305420e-02 -3.360407948493957520e-01 5.243101119995117188e-01
-6.517392396926879883e-02 -3.000223040580749512e-01 5.213722586631774902e-01
-7.650077342987060547e-02 -2.547848224639892578e-01 5.183784365653991699e-01
1.212254166603088379e-03 -5.011499524116516113e-01 5.288973450660705566e-01
-1.756405830383300781e-02 -4.723854660987854004e-01 5.286701321601867676e-01
-3.441569209098815918e-02 -4.456078708171844482e-01 5.279227495193481445e-01
-4.818159341812133789e-02 -4.183567762374877930e-01 5.267446041107177734e-01
-5.769613385200500488e-02 -3.920099139213562012e-01 5.254840850830078125e-01
-6.881190836429595947e-02 -3.582952320575714111e-01 5.234155058860778809e-01
-7.956030219793319702e-02 -3.254377245903015137e-01 5.208315253257751465e-01
-9.166735410690307617e-02 -2.814828157424926758e-01 5.171088576316833496e-01
-2.340152859687805176e-02 -5.198972821235656738e-01 5.275924801826477051e-01
-4.069362580776214600e-02 -4.921543300151824951e-01 5.271027088165283203e-01
-5.222576856613159180e-02 -4.648613333702087402e-01 5.263358950614929199e-01
-6.249402463436126709e-02 -4.383516609668731689e-01 5.256001353263854980e-01
-7.225839793682098389e-02 -4.136637449264526367e-01 5.247373580932617188e-01
-8.330717682838439941e-02 -3.844659328460693359e-01 5.227559208869934082e-01
-9.383060038089752197e-02 -3.487939238548278809e-01 5.198000669479370117e-01
-1.099268794059753418e-01 -3.057416677474975586e-01 5.103248357772827148e-01
-4.309192299842834473e-02 -5.377124547958374023e-01 5.259563922882080078e-01
-5.715626478195190430e-02 -5.106785893440246582e-01 5.256898403167724609e-01
-6.798237562179565430e-02 -4.844620823860168457e-01 5.251231789588928223e-01
-7.948167622089385986e-02 -4.574565291404724121e-01 5.243955850601196289e-01
-9.035303443670272827e-02 -4.326544702053070068e-01 5.231661796569824219e-01
-9.964323043823242188e-02 -4.054514765739440918e-01 5.198863148689270020e-01
-1.115842014551162720e-01 -3.717133998870849609e-01 5.129813551902770996e-01
-1.270983368158340454e-01 -3.325286507606506348e-01 5.054086446762084961e-01
-5.804292112588882446e-02 -5.559576749801635742e-01 5.248516201972961426e-01
-7.322210818529129028e-02 -5.318868756294250488e-01 5.241134762763977051e-01
-8.583868294954299927e-02 -5.065811872482299805e-01 5.236229300498962402e-01
-9.770136326551437378e-02 -4.776965081691741943e-01 5.206465125083923340e-01
-1.077110171318054199e-01 -4.511814713478088379e-01 5.169611573219299316e-01
-1.165993288159370422e-01 -4.258043766021728516e-01 5.127671360969543457e-01
-1.279314160346984863e-01 -3.963645398616790771e-01 5.071418881416320801e-01
-1.408315896987915039e-01 -3.590485453605651855e-01 5.014755725860595703e-01
-7.562279701232910156e-02 -5.757654905319213867e-01 5.238533616065979004e-01
-9.039887785911560059e-02 -5.515861511230468750e-01 5.209743380546569824e-01
-1.047336310148239136e-01 -5.257083177566528320e-01 5.167916417121887207e-01
-1.167575418949127197e-01 -4.981972873210906982e-01 5.127369761466979980e-01
-1.250751614570617676e-01 -4.724052548408508301e-01 5.090548396110534668e-01
-1.338557898998260498e-01 -4.488719105720520020e-01 5.056005120277404785e-01
-1.441118866205215454e-01 -4.211836755275726318e-01 5.020483732223510742e-01
-1.514506489038467407e-01 -3.849734961986541748e-01 4.981397390365600586e-01
-9.905037283897399902e-02 -5.929942131042480469e-01 5.169514417648315430e-01
-1.132940649986267090e-01 -5.677050352096557617e-01 5.109955668449401855e-01
-1.263360232114791870e-01 -5.396845340728759766e-01 5.063758492469787598e-01
-1.364250928163528442e-01 -5.164739489555358887e-01 5.029568076133728027e-01
-1.442430019378662109e-01 -4.945369660854339600e-01 5.012199282646179199e-01
-1.527832746505737305e-01 -4.707660079002380371e-01 4.987679719924926758e-01
-1.593753993511199951e-01 -4.443107247352600098e-01 4.959679245948791504e-01
-1.645523905754089355e-01 -4.135904610157012939e-01 4.926692545413970947e-01
-1.260875463485717773e-01 -6.001716852188110352e-01 5.054360628128051758e-01
-1.407872736454010010e-01 -5.821176767349243164e-01 4.985776543617248535e-01
-1.526210755109786987e-01 -5.552908778190612793e-01 4.954830408096313477e-01
-1.625905483961105347e-01 -5.315408110618591309e-01 4.936189949512481689e-01
-1.700696051120758057e-01 -5.102648735046386719e-01 4.921576380729675293e-01
-1.748788356781005859e-01 -4.886458516120910645e-01 4.904175996780395508e-01
-1.797975450754165649e-01 -4.641932845115661621e-01 4.876139760017395020e-01
-1.868356168270111084e-01 -4.364070594310760498e-01 4.844414591789245605e-01
-2.855842411518096924e-01 -7.554002106189727783e-02 -3.092960715293884277e-01
-2.970674335956573486e-01 -4.368506744503974915e-02 -2.991533577442169189e-01
-3.109841346740722656e-01 -1.402543485164642334e-02 -2.890549004077911377e-01
-3.247403204441070557e-01 1.379230618476867676e-02 -2.784049510955810547e-01
-3.372426033020019531e-01 3.586851060390472412e-02 -2.667938470840454102e-01
-3.506386280059814453e-01 5.666790902614593506e-02 -2.526343464851379395e-01
-3.624969422817230225e-01 8.433072268962860107e-02 -2.363023757934570312e-01
-3.745016455650329590e-01 1.242430359125137329e-01 -2.204108536243438721e-01
-3.002063035964965820e-01 -9.538885951042175293e-02 -2.939492166042327881e-01
-3.173266351222991943e-01 -6.334404647350311279e-02 -2.796827256679534912e-01
-3.309388458728790283e-01 -3.456145897507667542e-02 -2.690449953079223633e-01
-3.414183855056762695e-01 -9.010046720504760742e-03 -2.605224847793579102e-01
-3.514373302459716797e-01 1.336921751499176025e-02 -2.492209821939468384e-01
-3.607984781265258789e-01 3.843764960765838623e-02 -2.370840460062026978e-01
-3.717818260192871094e-01 6.520073115825653076e-02 -2.213806807994842529e-01
-3.817335069179534912e-01 1.004216820001602173e-01 -2.080038785934448242e-01
-3.143620491027832031e-01 -1.155745983123779297e-01 -2.791817784309387207e-01
-3.300575613975524902e-01 -8.531822264194488525e-02 -2.674280703067779541e-01
-3.419913649559020996e-01 -5.717165768146514893e-02 -2.567564547061920166e-01
-3.516409397125244141e-01 -3.218214586377143860e-02 -2.465219497680664062e-01
-3.605279326438903809e-01 -9.189501404762268066e-03 -2.351035028696060181e-01
-3.702485859394073486e-01 1.529608666896820068e-02 -2.225979715585708618e-01
-3.802011013031005859e-01 4.688583314418792725e-02 -2.093377709388732910e-01
-3.890307545661926270e-01 8.127015829086303711e-02 -1.957688331604003906e-01
-3.264298737049102783e-01 -1.372409164905548096e-01 -2.657437622547149658e-01
-3.414056599140167236e-01 -1.077829152345657349e-01 -2.543468475341796875e-01
-3.510231375694274902e-01 -8.138880878686904907e-02 -2.452142834663391113e-01
-3.600834906101226807e-01 -5.416941270232200623e-02 -2.337179034948348999e-01
-3.693931102752685547e-01 -3.206406906247138977e-02 -2.215552479028701782e-01
-3.787137567996978760e-01 -9.565874934196472168e-03 -2.088731825351715088e-01
-3.879825174808502197e-01 2.174293994903564453e-02 -1.977594196796417236e-01
-3.964600265026092529e-01 6.031963229179382324e-02 -1.834201961755752563e-01
-3.376830220222473145e-01 -1.580333560705184937e-01 -2.534225583076477051e-01
-3.498098254203796387e-01 -1.288342028856277466e-01 -2.432682216167449951e-01
-3.574890196323394775e-01 -1.015889942646026611e-01 -2.351388931274414062e-01
-3.669589459896087646e-01 -7.647338509559631348e-02 -2.225079089403152466e-01
-3.775697946548461914e-01 -5.411149933934211731e-02 -2.090478390455245972e-01
-3.858710229396820068e-01 -3.417721018195152283e-02 -1.987355351448059082e-01
-3.952257931232452393e-01 -2.487704157829284668e-03 -1.881303191184997559e-01
-4.020260274410247803e-01 3.355622291564941406e-02 -1.754151880741119385e-01
-3.468174040317535400e-01 -1.762825399637222290e-01 -2.439625859260559082e-01
-3.561473488807678223e-01 -1.512490361928939819e-01 -2.343713045120239258e-01
-3.657807111740112305e-01 -1.241997778415679932e-01 -2.232469916343688965e-01
-3.763184845447540283e-01 -1.001008450984954834e-01 -2.099587768316268921e-01
-3.863372802734375000e-01 -8.124102652072906494e-02 -1.967834532260894775e-01
-3.942327201366424561e-01 -5.948391184210777283e-02 -1.876720190048217773e-01
-4.006704390048980713e-01 -2.948035672307014465e-02 -1.780122518539428711e-01
-4.067673981189727783e-01 9.712487459182739258e-03 -1.674481630325317383e-01
-3.582018613815307617e-01 -2.003165334463119507e-01 -2.282850742340087891e-01
-3.681017756462097168e-01 -1.737158000469207764e-01 -2.173014730215072632e-01
-3.793534338474273682e-01 -1.513131260871887207e-01 -2.037054598331451416e-01
-3.913187086582183838e-01 -1.287988424301147461e-01 -1.905689835548400879e-01
-3.979361057281494141e-01 -1.064415499567985535e-01 -1.814108788967132568e-01
-4.026250839233398438e-01 -8.310289680957794189e-02 -1.729125231504440308e-01
-4.064317047595977783e-01 -5.775403603911399841e-02 -1.651259660720825195e-01
-4.117788374423980713e-01 -1.992087066173553467e-02 -1.575490832328796387e-01
-3.728259503841400146e-01 -2.218446582555770874e-01 -2.079163491725921631e-01
-3.815940618515014648e-01 -1.920543313026428223e-01 -1.948875188827514648e-01
-3.926191329956054688e-01 -1.701815426349639893e-01 -1.803671121597290039e-01
-4.016175866127014160e-01 -1.478324383497238159e-01 -1.702932715415954590e-01
-4.057947099208831787e-01 -1.272252351045608521e-01 -1.650086343288421631e-01
-4.097018241882324219e-01 -1.019280850887298584e-01 -1.579467654228210449e-01
-4.117522239685058594e-01 -7.842168211936950684e-02 -1.520437598228454590e-01
-4.149590730667114258e-01 -5.015959963202476501e-02 -1.448389142751693726e-01
4.660955071449279785e-01 -2.840980887413024902e-03 9.327682852745056152e-02
4.657184481620788574e-01 3.137429058551788330e-02 8.921022713184356689e-02
4.650644659996032715e-01 6.258529424667358398e-02 8.855450153350830078e-02
4.651387333869934082e-01 9.403406828641891479e-02 9.284022450447082520e-02
4.653139710426330566e-01 1.288441270589828491e-01 9.376315772533416748e-02
4.653558731079101562e-01 1.660416722297668457e-01 9.182560443878173828e-02
4.670599400997161865e-01 1.998728662729263306e-01 9.746302664279937744e-02
4.700325727462768555e-01 2.284799069166183472e-01 1.086925119161605835e-01
4.675372540950775146e-01 -2.713248506188392639e-02 7.182046025991439819e-02
4.673285484313964844e-01 1.425235345959663391e-02 6.890659779310226440e-02
4.668769836425781250e-01 4.641587659716606140e-02 6.785974651575088501e-02
4.669842123985290527e-01 7.740265130996704102e-02 6.985585391521453857e-02
4.668576419353485107e-01 1.154105961322784424e-01 7.377648353576660156e-02
4.673148989677429199e-01 1.552424132823944092e-01 7.202622294425964355e-02
4.673278331756591797e-01 1.951059699058532715e-01 6.853977590799331665e-02
4.679164588451385498e-01 2.284777760505676270e-01 7.383217662572860718e-02
4.673407673835754395e-01 -5.081703886389732361e-02 5.779199302196502686e-02
4.681479930877685547e-01 -6.409514695405960083e-03 5.666016414761543274e-02
4.686262309551239014e-01 3.008781932294368744e-02 5.574608594179153442e-02
4.686900973320007324e-01 6.045069918036460876e-02 5.619535595178604126e-02
4.683100581169128418e-01 9.731582552194595337e-02 5.812770873308181763e-02
4.681324958801269531e-01 1.358501911163330078e-01 5.689113214612007141e-02
4.675278067588806152e-01 1.786147505044937134e-01 5.325705930590629578e-02
4.667694270610809326e-01 2.165540605783462524e-01 5.017734318971633911e-02
4.668438434600830078e-01 -7.433381676673889160e-02 4.770894721150398254e-02
4.679415524005889893e-01 -2.797912433743476868e-02 4.522941634058952332e-02
4.691757857799530029e-01 1.041725277900695801e-02 4.065500572323799133e-02
4.694311916828155518e-01 4.324052482843399048e-02 3.995326533913612366e-02
4.687139987945556641e-01 7.676837593317031860e-02 3.753251209855079651e-02
4.683712124824523926e-01 1.133478432893753052e-01 3.595060855150222778e-02
4.673589766025543213e-01 1.553322523832321167e-01 3.305725380778312683e-02
4.659575223922729492e-01 1.989342868328094482e-01 2.852649614214897156e-02
4.673460423946380615e-01 -8.719077706336975098e-02 3.038149699568748474e-02
4.677813351154327393e-01 -4.690905287861824036e-02 3.107253462076187134e-02
4.685449004173278809e-01 -1.180036738514900208e-02 2.579120919108390808e-02
4.684827923774719238e-01 2.364023588597774506e-02 2.165754511952400208e-02
4.681929945945739746e-01 5.465412884950637817e-02 1.967358961701393127e-02
4.675175845623016357e-01 8.868559449911117554e-02 1.626499369740486145e-02
4.661537110805511475e-01 1.279733777046203613e-01 1.145270466804504395e-02
4.643393456935882568e-01 1.749054640531539917e-01 7.579786702990531921e-03
4.680226445198059082e-01 -1.042090207338333130e-01 1.403344143182039261e-02
4.671875238418579102e-01 -6.070469692349433899e-02 1.798978075385093689e-02
4.672327935695648193e-01 -2.965422347187995911e-02 1.378071401268243790e-02
4.670583009719848633e-01 -1.335699111223220825e-03 8.602624759078025818e-03
4.665789604187011719e-01 3.225491940975189209e-02 3.805449232459068298e-03
4.657048881053924561e-01 6.474273651838302612e-02 1.779915764927864075e-04
4.647592604160308838e-01 9.882964193820953369e-02 -5.544787272810935974e-03
4.637191295623779297e-01 1.455896943807601929e-01 -1.474083401262760162e-02
4.665946960449218750e-01 -1.206100285053253174e-01 -3.184055909514427185e-03
4.655658900737762451e-01 -7.642146944999694824e-02 -4.411758854985237122e-04
4.654985964298248291e-01 -4.175895825028419495e-02 -2.647910267114639282e-03
4.651708006858825684e-01 -1.787022128701210022e-02 -6.970681250095367432e-03
4.645440876483917236e-01 9.229460731148719788e-03 -1.335418596863746643e-02
4.641825556755065918e-01 4.221328347921371460e-02 -1.868911087512969971e-02
4.641681611537933350e-01 7.600316405296325684e-02 -2.321824803948402405e-02
4.639382958412170410e-01 1.159686893224716187e-01 -2.851391211152076721e-02
4.635829329490661621e-01 -1.156719923019409180e-01 -4.174981638789176941e-02
4.630663394927978516e-01 -9.129361808300018311e-02 -2.727606892585754395e-02
4.631998538970947266e-01 -5.329077318310737610e-02 -2.706242352724075317e-02
4.634303152561187744e-01 -2.241118997335433960e-02 -3.004735708236694336e-02
4.635342359542846680e-01 -1.613125205039978027e-04 -3.133456781506538391e-02
4.633896648883819580e-01 2.457278035581111908e-02 -3.584908321499824524e-02
4.631757736206054688e-01 5.650555714964866638e-02 -4.288273304700851440e-02
4.620443582534790039e-01 9.090255200862884521e-02 -4.829380288720130920e-02
4.352083504199981689e-01 3.219438493251800537e-01 2.328592240810394287e-01
4.351787865161895752e-01 3.460951745510101318e-01 2.261850833892822266e-01
4.355886578559875488e-01 3.681476116180419922e-01 2.222155332565307617e-01
4.349965453147888184e-01 3.916415870189666748e-01 2.231459915637969971e-01
4.339893758296966553e-01 4.230362772941589355e-01 2.244721651077270508e-01
4.331063032150268555e-01 4.706664681434631348e-01 2.242707610130310059e-01
4.301502108573913574e-01 5.181148052215576172e-01 2.275317907333374023e-01
4.229689240455627441e-01 5.552590489387512207e-01 2.432516366243362427e-01
4.382342696189880371e-01 3.011938333511352539e-01 2.094477415084838867e-01
4.403232336044311523e-01 3.293382525444030762e-01 2.039010822772979736e-01
4.424590170383453369e-01 3.546640872955322266e-01 1.978720724582672119e-01
4.428262710571289062e-01 3.765015900135040283e-01 1.996784955263137817e-01
4.416590034961700439e-01 4.027896821498870850e-01 2.079807817935943604e-01
4.397355020046234131e-01 4.426195025444030762e-01 2.226311564445495605e-01
4.344166815280914307e-01 4.914356470108032227e-01 2.353352904319763184e-01
4.224673211574554443e-01 5.420757532119750977e-01 2.522264420986175537e-01
4.423461556434631348e-01 2.814473211765289307e-01 1.926147937774658203e-01
4.441984295845031738e-01 3.125219345092773438e-01 1.886284202337265015e-01
4.433888494968414307e-01 3.377923667430877686e-01 1.988771259784698486e-01
4.415825903415679932e-01 3.609260320663452148e-01 2.118147909641265869e-01
4.383325874805450439e-01 3.822588920593261719e-01 2.239737808704376221e-01
4.306195080280303955e-01 4.140941500663757324e-01 2.404865771532058716e-01
4.222247600555419922e-01 4.575319886207580566e-01 2.539464831352233887e-01
4.104048013687133789e-01 5.075489282608032227e-01 2.713642120361328125e-01
4.435325860977172852e-01 2.583808898925781250e-01 1.870908737182617188e-01
4.415938854217529297e-01 2.916248440742492676e-01 1.994495838880538940e-01
4.397782385349273682e-01 3.190152049064636230e-01 2.139982581138610840e-01
4.345417022705078125e-01 3.409935235977172852e-01 2.274753451347351074e-01
4.293085038661956787e-01 3.647246956825256348e-01 2.387210577726364136e-01
4.219444394111633301e-01 3.899002969264984131e-01 2.541820406913757324e-01
4.151045083999633789e-01 4.264478087425231934e-01 2.677725553512573242e-01
4.036273360252380371e-01 4.758260250091552734e-01 2.868991494178771973e-01
4.407894313335418701e-01 2.347629517316818237e-01 1.981273591518402100e-01
4.385621547698974609e-01 2.668869197368621826e-01 2.118314802646636963e-01
4.330760836601257324e-01 2.954857945442199707e-01 2.275313436985015869e-01
4.280563890933990479e-01 3.207724988460540771e-01 2.402260601520538330e-01
4.227999150753021240e-01 3.438481092453002930e-01 2.518166303634643555e-01
4.166975319385528564e-01 3.703634142875671387e-01 2.636488080024719238e-01
4.093895852565765381e-01 3.998973965644836426e-01 2.776802182197570801e-01
3.993448019027709961e-01 4.438666999340057373e-01 2.952965795993804932e-01
4.368949234485626221e-01 2.098955512046813965e-01 2.135329395532608032e-01
4.322263002395629883e-01 2.452022731304168701e-01 2.283882498741149902e-01
4.270760118961334229e-01 2.726419866085052490e-01 2.406891137361526489e-01
4.218755960464477539e-01 2.997888028621673584e-01 2.536516785621643066e-01
4.169328510761260986e-01 3.241740465164184570e-01 2.644827961921691895e-01
4.109748899936676025e-01 3.489957749843597412e-01 2.751571834087371826e-01
4.037359058856964111e-01 3.790245056152343750e-01 2.870403826236724854e-01
3.942033648490905762e-01 4.164051413536071777e-01 3.019102215766906738e-01
4.291832447052001953e-01 1.797876954078674316e-01 2.343320995569229126e-01
4.226823151111602783e-01 2.206333279609680176e-01 2.540417313575744629e-01
4.178723394870758057e-01 2.520831823348999023e-01 2.641965746879577637e-01
4.138128161430358887e-01 2.793258428573608398e-01 2.712603807449340820e-01
4.098633229732513428e-01 3.032290339469909668e-01 2.804251015186309814e-01
4.036149084568023682e-01 3.276964426040649414e-01 2.902524173259735107e-01
3.963204622268676758e-01 3.591639101505279541e-01 3.001387715339660645e-01
3.878660202026367188e-01 3.960252702236175537e-01 3.120836019515991211e-01
4.289565384387969971e-01 1.914130002260208130e-01 2.212978750467300415e-01
4.108957350254058838e-01 1.988259255886077881e-01 2.796886563301086426e-01
4.054598808288574219e-01 2.323215603828430176e-01 2.901668250560760498e-01
4.022693037986755371e-01 2.587276399135589600e-01 2.952899932861328125e-01
3.994880318641662598e-01 2.821571230888366699e-01 2.986271381378173828e-01
3.946895003318786621e-01 3.067963719367980957e-01 3.050004839897155762e-01
3.880356252193450928e-01 3.413046002388000488e-01 3.164505362510681152e-01
3.801405131816864014e-01 3.794694840908050537e-01 3.303118348121643066e-01
3.046681284904479980e-01 3.549692034721374512e-01 -2.893245816230773926e-01
3.016736507415771484e-01 3.889399468898773193e-01 -2.939065396785736084e-01
2.986512780189514160e-01 4.185822606086730957e-01 -2.986174225807189941e-01
2.920287847518920898e-01 4.544790089130401611e-01 -3.024677038192749023e-01
2.857291102409362793e-01 4.906110763549804688e-01 -3.054409623146057129e-01
2.790142297744750977e-01 5.261472463607788086e-01 -3.101505935192108154e-01
2.753505110740661621e-01 5.637550354003906250e-01 -3.125534355640411377e-01
2.658224701881408691e-01 5.958648920059204102e-01 -3.149119615554809570e-01
2.926514744758605957e-01 3.351041078567504883e-01 -3.001227378845214844e-01
2.835491597652435303e-01 3.743006587028503418e-01 -3.065919280052185059e-01
2.768955826759338379e-01 4.023441076278686523e-01 -3.124431073665618896e-01
2.708079516887664795e-01 4.353714585304260254e-01 -3.173406422138214111e-01
2.646829783916473389e-01 4.719117879867553711e-01 -3.225685954093933105e-01
2.583754062652587891e-01 5.104489326477050781e-01 -3.269418776035308838e-01
2.521517276763916016e-01 5.474281311035156250e-01 -3.325268626213073730e-01
2.387098073959350586e-01 5.949128866195678711e-01 -3.431384563446044922e-01
2.785637676715850830e-01 3.136331439018249512e-01 -3.103046417236328125e-01
2.670866847038269043e-01 3.557782769203186035e-01 -3.183038234710693359e-01
2.599833309650421143e-01 3.880533874034881592e-01 -3.244856595993041992e-01
2.532767951488494873e-01 4.215633571147918701e-01 -3.293209373950958252e-01
2.449618279933929443e-01 4.562524259090423584e-01 -3.361428678035736084e-01
2.355632930994033813e-01 4.944778084754943848e-01 -3.445981144905090332e-01
2.250395864248275757e-01 5.297313928604125977e-01 -3.524526655673980713e-01
2.095076292753219604e-01 5.818387269973754883e-01 -3.609460890293121338e-01
2.660062909126281738e-01 2.898132801055908203e-01 -3.193344771862030029e-01
2.530248761177062988e-01 3.333064019680023193e-01 -3.285484015941619873e-01
2.450115084648132324e-01 3.725019693374633789e-01 -3.337684869766235352e-01
2.370482236146926880e-01 4.082795679569244385e-01 -3.404037654399871826e-01
2.289067357778549194e-01 4.421979784965515137e-01 -3.482584953308105469e-01
2.164936959743499756e-01 4.779933989048004150e-01 -3.574678003787994385e-01
2.027746737003326416e-01 5.156902074813842773e-01 -3.638544976711273193e-01
1.885624229907989502e-01 5.591270327568054199e-01 -3.702771365642547607e-01
2.538399994373321533e-01 2.670338451862335205e-01 -3.268596827983856201e-01
2.407037615776062012e-01 3.142599761486053467e-01 -3.361487388610839844e-01
2.315935343503952026e-01 3.557941019535064697e-01 -3.441901803016662598e-01
2.240315377712249756e-01 3.941178917884826660e-01 -3.509101271629333496e-01
2.151066660881042480e-01 4.286513328552246094e-01 -3.571118116378784180e-01
2.017882317304611206e-01 4.630729854106903076e-01 -3.633202612400054932e-01
1.894216984510421753e-01 4.956176280975341797e-01 -3.692229092121124268e-01
1.771215796470642090e-01 5.402212142944335938e-01 -3.750913441181182861e-01
2.357644885778427124e-01 2.462872117757797241e-01 -3.383185565471649170e-01
2.232610285282135010e-01 2.972783446311950684e-01 -3.502152562141418457e-01
2.136282622814178467e-01 3.414407968521118164e-01 -3.583943545818328857e-01
2.048439681529998779e-01 3.795069456100463867e-01 -3.621764481067657471e-01
1.958091259002685547e-01 4.139489531517028809e-01 -3.660686910152435303e-01
1.864239871501922607e-01 4.472301006317138672e-01 -3.697320222854614258e-01
1.769684553146362305e-01 4.768154621124267578e-01 -3.735869526863098145e-01
1.649868786334991455e-01 5.162553787231445312e-01 -3.798884153366088867e-01
2.089564353227615356e-01 2.311052829027175903e-01 -3.572489917278289795e-01
1.993252635002136230e-01 2.821784019470214844e-01 -3.645110726356506348e-01
1.894960105419158936e-01 3.275889754295349121e-01 -3.697902560234069824e-01
1.821619868278503418e-01 3.631712496280670166e-01 -3.720000088214874268e-01
1.754356622695922852e-01 3.978299200534820557e-01 -3.747727870941162109e-01
1.680731773376464844e-01 4.290532171726226807e-01 -3.776338696479797363e-01
1.606785058975219727e-01 4.595198035240173340e-01 -3.804680705070495605e-01
1.511317342519760132e-01 4.915234744548797607e-01 -3.838113546371459961e-01
1.664953231811523438e-01 2.415107637643814087e-01 -3.801274597644805908e-01
1.682513505220413208e-01 2.618736028671264648e-01 -3.741711676120758057e-01
1.638576984405517578e-01 3.127591013908386230e-01 -3.793766498565673828e-01
1.600755602121353149e-01 3.437701165676116943e-01 -3.820510208606719971e-01
1.566585302352905273e-01 3.764429092407226562e-01 -3.831048607826232910e-01
1.504168659448623657e-01 4.107822775840759277e-01 -3.861711621284484863e-01
1.421721875667572021e-01 4.390177726745605469e-01 -3.880749344825744629e-01
1.287429779767990112e-01 4.712572097778320312e-01 -3.892146646976470947e-01
-3.572703003883361816e-01 8.885784447193145752e-02 -2.394032478332519531e-01
-3.663532435894012451e-01 1.189610958099365234e-01 -2.269311398267745972e-01
-3.738046288490295410e-01 1.497559994459152222e-01 -2.139423638582229614e-01
-3.789183497428894043e-01 1.764485239982604980e-01 -2.041714489459991455e-01
-3.847361207008361816e-01 1.984155774116516113e-01 -1.938326954841613770e-01
-3.927101790904998779e-01 2.205041348934173584e-01 -1.806283593177795410e-01
-4.024764001369476318e-01 2.524571120738983154e-01 -1.666634380817413330e-01
-4.192291498184204102e-01 2.923965752124786377e-01 -1.471182405948638916e-01
-3.674118518829345703e-01 7.554933428764343262e-02 -2.191763073205947876e-01
-3.768362998962402344e-01 1.058778613805770874e-01 -2.082052826881408691e-01
-3.831407129764556885e-01 1.327714323997497559e-01 -1.989545673131942749e-01
-3.901838064193725586e-01 1.582413613796234131e-01 -1.872367262840270996e-01
-3.970602452754974365e-01 1.786884367465972900e-01 -1.750725209712982178e-01
-4.047161042690277100e-01 2.014560997486114502e-01 -1.629447937011718750e-01
-4.131286442279815674e-01 2.284612655639648438e-01 -1.483303457498550415e-01
-4.242292344570159912e-01 2.675542235374450684e-01 -1.325770914554595947e-01
-3.775731027126312256e-01 5.823306739330291748e-02 -2.025467008352279663e-01
-3.852501213550567627e-01 9.065547585487365723e-02 -1.921817511320114136e-01
-3.935083150863647461e-01 1.160857081413269043e-01 -1.805884093046188354e-01
-4.005561470985412598e-01 1.356082707643508911e-01 -1.687750220298767090e-01
-4.077278971672058105e-01 1.565146446228027344e-01 -1.572103798389434814e-01
-4.159064888954162598e-01 1.813084781169891357e-01 -1.430495679378509521e-01
-4.239173829555511475e-01 2.058440446853637695e-01 -1.287799179553985596e-01
-4.310305416584014893e-01 2.411759793758392334e-01 -1.122870221734046936e-01
-3.850821554660797119e-01 3.456162661314010620e-02 -1.896038949489593506e-01
-3.924036920070648193e-01 6.937900185585021973e-02 -1.799432188272476196e-01
-4.006742835044860840e-01 9.852889180183410645e-02 -1.672661155462265015e-01
-4.083072841167449951e-01 1.180907934904098511e-01 -1.563268750905990601e-01
-4.159847795963287354e-01 1.348235309123992920e-01 -1.417151391506195068e-01
-4.248406887054443359e-01 1.577453315258026123e-01 -1.254051923751831055e-01
-4.312019050121307373e-01 1.844242811203002930e-01 -1.110565438866615295e-01
-4.349142313003540039e-01 2.170763015747070312e-01 -9.962195903062820435e-02
-3.913762867450714111e-01 1.387783139944076538e-02 -1.791621595621109009e-01
-3.986810147762298584e-01 4.374291747808456421e-02 -1.705093532800674438e-01
-4.071869552135467529e-01 7.648727297782897949e-02 -1.576432585716247559e-01
-4.149837195873260498e-01 9.781648218631744385e-02 -1.437955200672149658e-01
-4.227722883224487305e-01 1.167748421430587769e-01 -1.291861683130264282e-01
-4.303855895996093750e-01 1.355437338352203369e-01 -1.134961843490600586e-01
-4.345943927764892578e-01 1.592783629894256592e-01 -9.996852278709411621e-02
-4.383050501346588135e-01 1.924729347229003906e-01 -8.944404870271682739e-02
-3.993222117424011230e-01 -2.723234146833419800e-02 -1.652172058820724487e-01
-4.064797759056091309e-01 2.159481495618820190e-02 -1.568424403667449951e-01
-4.161357879638671875e-01 4.736528545618057251e-02 -1.440776139497756958e-01
-4.239357411861419678e-01 7.219040393829345703e-02 -1.285543888807296753e-01
-4.303086400032043457e-01 9.351414442062377930e-02 -1.141898557543754578e-01
-4.348000586032867432e-01 1.137016043066978455e-01 -1.013497188687324524e-01
-4.375731945037841797e-01 1.374638825654983521e-01 -9.122342616319656372e-02
-4.399530291557312012e-01 1.657200455665588379e-01 -7.892195880413055420e-02
-4.059552848339080811e-01 -3.216316550970077515e-02 -1.632222682237625122e-01
-4.190945625305175781e-01 -1.330090314149856567e-02 -1.339473873376846313e-01
-4.275080561637878418e-01 2.398297935724258423e-02 -1.174605563282966614e-01
-4.334420263767242432e-01 5.058395490050315857e-02 -1.057711690664291382e-01
-4.369742870330810547e-01 7.136486470699310303e-02 -9.818216413259506226e-02
-4.393045902252197266e-01 9.005078673362731934e-02 -8.778450638055801392e-02
-4.406350255012512207e-01 1.111694425344467163e-01 -7.843050360679626465e-02
-4.419461488723754883e-01 1.404804736375808716e-01 -6.812819838523864746e-02
-3.985584080219268799e-01 1.917401701211929321e-02 -1.638974845409393311e-01
-4.247578680515289307e-01 -2.081630378961563110e-02 -1.206485480070114136e-01
-4.361147582530975342e-01 1.480929553508758545e-03 -8.715067058801651001e-02
-4.384306669235229492e-01 2.984910458326339722e-02 -8.057069778442382812e-02
-4.401095211505889893e-01 5.025674402713775635e-02 -7.709917426109313965e-02
-4.413063228130340576e-01 7.055237889289855957e-02 -7.159580290317535400e-02
-4.422662258148193359e-01 9.267194569110870361e-02 -6.412783265113830566e-02
-4.433569312095642090e-01 1.174449473619461060e-01 -5.620665848255157471e-02
-1.292969286441802979e-01 7.256411314010620117e-01 -3.728190958499908447e-01
-1.641745120286941528e-01 7.603123188018798828e-01 -3.700190186500549316e-01
-1.871684044599533081e-01 7.837744355201721191e-01 -3.626690208911895752e-01
-2.040616571903228760e-01 8.092533946037292480e-01 -3.521152138710021973e-01
-2.204288989305496216e-01 8.325483798980712891e-01 -3.411551415920257568e-01
-2.380728721618652344e-01 8.502334356307983398e-01 -3.303738832473754883e-01
-2.592884004116058350e-01 8.678936362266540527e-01 -3.164272606372833252e-01
-2.911278009414672852e-01 8.761324882507324219e-01 -2.802702188491821289e-01
-1.857165247201919556e-01 7.069122195243835449e-01 -3.668596446514129639e-01
-2.099878787994384766e-01 7.389879226684570312e-01 -3.531103730201721191e-01
-2.289236634969711304e-01 7.654566764831542969e-01 -3.353087604045867920e-01
-2.479988634586334229e-01 7.887151241302490234e-01 -3.233664333820343018e-01
-2.616024911403656006e-01 8.103059530258178711e-01 -3.136799037456512451e-01
-2.738967239856719971e-01 8.317785859107971191e-01 -3.045529425144195557e-01
-2.930393815040588379e-01 8.489550352096557617e-01 -2.885050475597381592e-01
-3.178316354751586914e-01 8.643060922622680664e-01 -2.671437263488769531e-01
-2.181421816349029541e-01 6.831257939338684082e-01 -3.467857539653778076e-01
-2.367659509181976318e-01 7.165696024894714355e-01 -3.337065577507019043e-01
-2.584704756736755371e-01 7.461172342300415039e-01 -3.192379474639892578e-01
-2.723307013511657715e-01 7.673773765563964844e-01 -3.078972995281219482e-01
-2.841271460056304932e-01 7.899358868598937988e-01 -2.985689043998718262e-01
-3.005185425281524658e-01 8.104674816131591797e-01 -2.853588759899139404e-01
-3.209014832973480225e-01 8.277394771575927734e-01 -2.703163027763366699e-01
-3.406230807304382324e-01 8.456137180328369141e-01 -2.535461187362670898e-01
-2.376885861158370972e-01 6.553192734718322754e-01 -3.370158970355987549e-01
-2.609578371047973633e-01 6.889981627464294434e-01 -3.223147094249725342e-01
-2.766339480876922607e-01 7.206453084945678711e-01 -3.095982074737548828e-01
-2.911017835140228271e-01 7.468869686126708984e-01 -2.982142269611358643e-01
-3.043518662452697754e-01 7.662867307662963867e-01 -2.868285477161407471e-01
-3.235178291797637939e-01 7.892642021179199219e-01 -2.724603414535522461e-01
-3.419451713562011719e-01 8.084905743598937988e-01 -2.570920884609222412e-01
-3.561134338378906250e-01 8.285894393920898438e-01 -2.425243556499481201e-01
-2.575386762619018555e-01 6.182157993316650391e-01 -3.272409439086914062e-01
-2.764271497726440430e-01 6.576952934265136719e-01 -3.125341534614562988e-01
-2.918372154235839844e-01 6.883951425552368164e-01 -2.999675273895263672e-01
-3.069446086883544922e-01 7.193500995635986328e-01 -2.883575856685638428e-01
-3.243441879749298096e-01 7.423140406608581543e-01 -2.743691205978393555e-01
-3.417129814624786377e-01 7.605403065681457520e-01 -2.574490904808044434e-01
-3.555021584033966064e-01 7.848689556121826172e-01 -2.420093268156051636e-01
-3.707221150398254395e-01 8.102376461029052734e-01 -2.263533025979995728e-01
-2.778927385807037354e-01 5.729473829269409180e-01 -3.092289865016937256e-01
-2.933367788791656494e-01 6.294803023338317871e-01 -2.985608577728271484e-01
-3.095248043537139893e-01 6.600543260574340820e-01 -2.865189611911773682e-01
-3.253621160984039307e-01 6.889265179634094238e-01 -2.735093235969543457e-01
-3.427359759807586670e-01 7.143794298171997070e-01 -2.578910887241363525e-01
-3.542545735836029053e-01 7.359795570373535156e-01 -2.444147169589996338e-01
-3.661063611507415771e-01 7.614331245422363281e-01 -2.293034195899963379e-01
-3.791103661060333252e-01 7.889409065246582031e-01 -2.126125544309616089e-01
-2.944578528404235840e-01 5.956141948699951172e-01 -3.054094612598419189e-01
-3.194462954998016357e-01 5.921776294708251953e-01 -2.772247493267059326e-01
-3.361998200416564941e-01 6.358122229576110840e-01 -2.610748708248138428e-01
-3.486756682395935059e-01 6.618743538856506348e-01 -2.481714785099029541e-01
-3.587632179260253906e-01 6.857808828353881836e-01 -2.373631894588470459e-01
-3.677728176116943359e-01 7.080872654914855957e-01 -2.250542938709259033e-01
-3.758678138256072998e-01 7.386599183082580566e-01 -2.114435136318206787e-01
-3.838996887207031250e-01 7.707412838935852051e-01 -1.991555094718933105e-01
-3.058089017868041992e-01 6.465561389923095703e-01 -2.991931140422821045e-01
-3.426968455314636230e-01 5.997221469879150391e-01 -2.532542645931243896e-01
-3.584592640399932861e-01 6.053238511085510254e-01 -2.373193353414535522e-01
-3.656964302062988281e-01 6.392396688461303711e-01 -2.282880842685699463e-01
-3.726474046707153320e-01 6.640925407409667969e-01 -2.185848504304885864e-01
-3.805112242698669434e-01 6.900164484977722168e-01 -2.058162838220596313e-01
-3.853998184204101562e-01 7.186354398727416992e-01 -1.956156194210052490e-01
-3.895024955272674561e-01 7.539363503456115723e-01 -1.840389370918273926e-01
1.492948383092880249e-01 3.202202543616294861e-02 -3.968635499477386475e-01
1.421149224042892456e-01 6.756785511970520020e-02 -3.998553454875946045e-01
1.368128508329391479e-01 1.015437915921211243e-01 -4.013607203960418701e-01
1.345543414354324341e-01 1.334070414304733276e-01 -4.054549336433410645e-01
1.283850967884063721e-01 1.606089919805526733e-01 -4.076655507087707520e-01
1.153924912214279175e-01 1.852993369102478027e-01 -4.082237482070922852e-01
9.875360131263732910e-02 2.173767238855361938e-01 -4.100143909454345703e-01
8.309200406074523926e-02 2.580488026142120361e-01 -4.111420810222625732e-01
1.331032514572143555e-01 3.392379730939865112e-03 -3.975379467010498047e-01
1.248197406530380249e-01 3.868954256176948547e-02 -4.006395936012268066e-01
1.144846826791763306e-01 7.222125679254531860e-02 -4.058304131031036377e-01
1.020823419094085693e-01 1.089010387659072876e-01 -4.099658727645874023e-01
9.314307570457458496e-02 1.433397680521011353e-01 -4.124004840850830078e-01
8.078636229038238525e-02 1.714644134044647217e-01 -4.143104851245880127e-01
6.481125950813293457e-02 2.055229544639587402e-01 -4.158250093460083008e-01
4.767575114965438843e-02 2.482741326093673706e-01 -4.181818068027496338e-01
1.250835806131362915e-01 -2.523987367749214172e-02 -3.966406583786010742e-01
1.092933416366577148e-01 1.293187215924263000e-02 -4.043997824192047119e-01
9.517424553632736206e-02 4.660033434629440308e-02 -4.095453023910522461e-01
7.914119958877563477e-02 8.592819422483444214e-02 -4.140361547470092773e-01
6.759427487850189209e-02 1.261947900056838989e-01 -4.174593985080718994e-01
5.067487806081771851e-02 1.620067059993743896e-01 -4.207859039306640625e-01
3.480247780680656433e-02 1.954751312732696533e-01 -4.225747585296630859e-01
1.979940012097358704e-02 2.389264702796936035e-01 -4.272524714469909668e-01
1.186126917600631714e-01 -5.945646390318870544e-02 -3.962554931640625000e-01
9.774382412433624268e-02 -1.634662970900535583e-02 -4.046205580234527588e-01
7.972504198551177979e-02 2.160029485821723938e-02 -4.116032421588897705e-01
6.086578592658042908e-02 5.950259417295455933e-02 -4.174017608165740967e-01
4.591440781950950623e-02 1.061199903488159180e-01 -4.211565852165222168e-01
2.958734147250652313e-02 1.486649513244628906e-01 -4.253087937831878662e-01
1.322326064109802246e-02 1.885907799005508423e-01 -4.302715063095092773e-01
-2.007503062486648560e-03 2.282217442989349365e-01 -4.331638514995574951e-01
1.071919500827789307e-01 -9.373757243156433105e-02 -3.956538736820220947e-01
8.465404063463211060e-02 -5.136841163039207458e-02 -4.050583541393280029e-01
6.462123990058898926e-02 -9.781938046216964722e-03 -4.123063087463378906e-01
4.691877588629722595e-02 3.087477758526802063e-02 -4.189445972442626953e-01
2.912844344973564148e-02 7.689186930656433105e-02 -4.240598082542419434e-01
1.469584181904792786e-02 1.262731105089187622e-01 -4.298525452613830566e-01
8.253343403339385986e-04 1.694375872611999512e-01 -4.345845282077789307e-01
-1.559013128280639648e-02 2.118298709392547607e-01 -4.354478716850280762e-01
8.683684468269348145e-02 -1.160518825054168701e-01 -4.127975404262542725e-01
6.184187531471252441e-02 -8.126024901866912842e-02 -4.073128700256347656e-01
4.074218869209289551e-02 -4.081195220351219177e-02 -4.154933691024780273e-01
2.520476654171943665e-02 3.558225929737091064e-03 -4.236675500869750977e-01
1.488837227225303650e-02 5.471693724393844604e-02 -4.294872879981994629e-01
2.022963017225265503e-03 9.755554795265197754e-02 -4.331976175308227539e-01
-1.437856256961822510e-02 1.427388638257980347e-01 -4.342794418334960938e-01
-2.774498984217643738e-02 1.877151131629943848e-01 -4.346010386943817139e-01
4.814823716878890991e-02 -6.708067655563354492e-02 -5.402360558509826660e-01
1.660729572176933289e-02 -1.034564822912216187e-01 -4.441827535629272461e-01
7.880039513111114502e-03 -6.090299412608146667e-02 -4.409779310226440430e-01
-4.593897610902786255e-03 -1.422708854079246521e-02 -4.371289312839508057e-01
-1.418453454971313477e-02 3.030902519822120667e-02 -4.320050776004791260e-01
-2.421959862112998962e-02 7.303507626056671143e-02 -4.332226216793060303e-01
-3.433334454894065857e-02 1.145292222499847412e-01 -4.343748688697814941e-01
-4.494221135973930359e-02 1.575188487768173218e-01 -4.352062344551086426e-01
-9.609788656234741211e-03 4.096459597349166870e-03 -6.615866422653198242e-01
-3.586370870471000671e-02 -2.819080278277397156e-02 -5.471251606941223145e-01
-4.195431992411613464e-02 -5.641653761267662048e-02 -4.565144479274749756e-01
-4.213413223624229431e-02 -2.695579454302787781e-02 -4.463170766830444336e-01
-4.757569357752799988e-02 1.355156674981117249e-02 -4.381448328495025635e-01
-5.450912937521934509e-02 4.979792237281799316e-02 -4.298044741153717041e-01
-6.181634590029716492e-02 8.793497830629348755e-02 -4.299409985542297363e-01
-7.104760408401489258e-02 1.314874291419982910e-01 -4.315115213394165039e-01
3.996508121490478516e-01 2.529865801334381104e-01 -1.761786937713623047e-01
