-4.607087075710296631e-01 -5.177284777164459229e-02 3.028553426265716553e-01
4.935148060321807861e-01 3.420559167861938477e-01 -2.467269450426101685e-01
3.085415363311767578e-01 -4.642669260501861572e-01 2.827444374561309814e-01
3.196788430213928223e-01 -2.740092277526855469e-01 -2.135236561298370361e-01
-2.972343862056732178e-01 3.856581449508666992e-01 3.672321140766143799e-01
1.995949745178222656e-01 -4.382351338863372803e-01 -1.695773154497146606e-01
1.333211809396743774e-01 5.022416114807128906e-01 4.572511017322540283e-01
4.236522912979125977e-01 -8.790171891450881958e-02 -2.688242793083190918e-01
4.274127185344696045e-01 7.910079509019851685e-02 1.246461048722267151e-01
-5.966016054153442383e-01 -1.413443833589553833e-01 3.976935148239135742e-01
4.661068320274353027e-01 3.866115510463714600e-01 -8.393244445323944092e-02
4.856425821781158447e-01 -8.946762979030609131e-02 1.207536086440086365e-01
6.933261752128601074e-01 -1.962517350912094116e-01 3.410407006740570068e-01
1.202643439173698425e-01 -4.801287949085235596e-01 -3.978948593139648438e-01
5.096445083618164062e-01 -1.434191875159740448e-02 -5.686973035335540771e-02
4.241362512111663818e-01 2.202029079198837280e-01 1.799037754535675049e-01
5.962835550308227539e-01 -6.062214970588684082e-01 2.931838333606719971e-01
3.779339790344238281e-01 -6.827461719512939453e-02 3.340257704257965088e-01
4.231010973453521729e-01 4.978359937667846680e-01 -3.638114631175994873e-01
-1.400184538215398788e-02 4.142757356166839600e-01 3.641601502895355225e-01
-1.936872117221355438e-02 -4.090948998928070068e-01 4.321628510951995850e-01
1.278692781925201416e-01 4.625904187560081482e-02 4.213351309299468994e-01
-2.573086135089397430e-02 1.769379526376724243e-01 4.559205472469329834e-01
-4.528775811195373535e-02 -3.328445851802825928e-01 -6.909394264221191406e-01
-2.752735614776611328e-01 2.683034241199493408e-01 3.744067251682281494e-01
-3.359985724091529846e-02 -3.546493649482727051e-01 -5.126249194145202637e-01
5.558475255966186523e-01 4.647826254367828369e-01 5.917201749980449677e-03
4.838632941246032715e-01 -2.226440906524658203e-01 3.224454224109649658e-01
-3.897153958678245544e-02 -1.672198474407196045e-01 -5.946505069732666016e-01
-1.419402062892913818e-01 -1.571087986230850220e-01 -3.830820620059967041e-01
3.256851732730865479e-01 -2.301713675260543823e-01 -3.455653488636016846e-01
3.404548764228820801e-01 -1.323029282502830029e-03 -2.701376378536224365e-01
-4.095144867897033691e-01 -1.257069259881973267e-01 5.541012436151504517e-02
-4.068698883056640625e-01 -4.551851749420166016e-01 1.081710681319236755e-01
2.714887857437133789e-01 2.270641177892684937e-01 -4.696699380874633789e-01
-1.090182512998580933e-01 -4.453181624412536621e-01 2.927926778793334961e-01
2.338398247957229614e-01 4.142757356166839600e-01 1.848626285791397095e-01
8.267733454704284668e-02 -1.432282030582427979e-01 4.014370739459991455e-01
1.313014924526214600e-01 -3.015197515487670898e-01 4.387836456298828125e-01
-2.191411107778549194e-01 1.153567656874656677e-01 3.920983672142028809e-01
-6.368213146924972534e-02 -4.304741024971008301e-01 -1.810851246118545532e-01
-3.498040884733200073e-02 -5.013682246208190918e-01 -6.820884533226490021e-03
-6.570932865142822266e-01 -2.559954226016998291e-01 4.301382601261138916e-01
3.211176991462707520e-01 2.355482876300811768e-01 3.320311009883880615e-01
1.689132899045944214e-01 -5.232772827148437500e-01 2.481724768877029419e-01
1.148076951503753662e-01 -1.214878112077713013e-01 -4.825545847415924072e-01
4.322652220726013184e-01 -3.036545515060424805e-01 1.528010219335556030e-01
-2.565622031688690186e-01 -2.165742516517639160e-01 4.016396403312683105e-01
1.614288613200187683e-02 3.428189158439636230e-01 5.495103597640991211e-01
-1.032767444849014282e-01 4.142757356166839600e-01 4.042931795120239258e-01
-2.931787073612213135e-01 8.579883724451065063e-02 3.367431163787841797e-01
5.434272289276123047e-01 4.949156939983367920e-01 1.212296783924102783e-01
-6.849894998595118523e-04 -4.215534627437591553e-01 5.168049037456512451e-02
-5.048800706863403320e-01 1.423804648220539093e-02 1.123406216502189636e-01
4.359185397624969482e-01 4.684204757213592529e-01 -1.930608153343200684e-01
-2.023796588182449341e-01 2.792486846446990967e-01 5.063309669494628906e-01
-4.150414764881134033e-01 -5.466454625129699707e-01 2.160050570964813232e-01
2.265393733978271484e-01 1.920311450958251953e-01 4.880942702293395996e-01
4.376189708709716797e-01 -3.749713301658630371e-01 -5.945189297199249268e-02
4.897431135177612305e-01 4.877100884914398193e-01 2.635746598243713379e-01
-5.391591787338256836e-01 -2.591816484928131104e-01 2.649486958980560303e-01
-1.392795294523239136e-01 -3.701391816139221191e-01 4.201864898204803467e-01
4.485268518328666687e-02 -5.916655063629150391e-01 -6.861552000045776367e-01
8.118839561939239502e-02 -4.328824877738952637e-01 1.976097524166107178e-01
-3.116984069347381592e-01 4.180853664875030518e-01 4.585680663585662842e-01
3.215146660804748535e-01 -1.496444791555404663e-01 -2.533636093139648438e-01
1.719327867031097412e-01 -3.156951665878295898e-01 -3.331680297851562500e-01
-5.291641354560852051e-01 -6.638921499252319336e-01 3.482235074043273926e-01
3.609065115451812744e-01 -2.032703906297683716e-01 -1.701968014240264893e-01
1.178246140480041504e-01 -5.250077843666076660e-01 -2.900157570838928223e-01
2.879153005778789520e-02 -4.619985520839691162e-01 -4.410952031612396240e-01
-2.676053941249847412e-01 -2.837478816509246826e-01 -2.722539305686950684e-01
5.481008291244506836e-01 4.492727816104888916e-01 -9.191519021987915039e-02
2.165504395961761475e-01 -5.190731287002563477e-01 1.588424891233444214e-01
4.582577943801879883e-01 1.625587940216064453e-01 2.760719358921051025e-01
-3.688565269112586975e-02 -5.135589838027954102e-01 -5.628376007080078125e-01
3.870112001895904541e-01 -1.524581462144851685e-01 1.314787864685058594e-01
-6.485794782638549805e-01 -5.434750765562057495e-02 3.353058993816375732e-01
5.220797657966613770e-01 7.914070785045623779e-02 -6.271304190158843994e-02
7.698719203472137451e-02 -8.390090614557266235e-02 4.948379993438720703e-01
1.200779750943183899e-01 -5.329808592796325684e-01 3.427006602287292480e-01
5.845952630043029785e-01 -2.872140705585479736e-01 2.874192893505096436e-01
3.685088455677032471e-01 2.803916931152343750e-01 4.028986990451812744e-01
4.352904856204986572e-01 4.523994028568267822e-01 1.912837922573089600e-01
-2.728338837623596191e-01 5.000020265579223633e-01 4.844172000885009766e-01
4.681971669197082520e-01 5.615195035934448242e-01 9.759932756423950195e-02
-1.145059168338775635e-01 4.709542691707611084e-01 5.441058874130249023e-01
-9.121047332882881165e-03 3.899493217468261719e-01 4.722881317138671875e-01
-5.614383220672607422e-01 -3.527596890926361084e-01 3.742012679576873779e-01
4.124429449439048767e-02 -2.167745083570480347e-01 -6.312383413314819336e-01
7.485609501600265503e-03 -2.043251693248748779e-02 4.302780628204345703e-01
4.341171681880950928e-01 -4.677289426326751709e-01 2.892035841941833496e-01
3.671111464500427246e-01 1.078681871294975281e-01 -3.821719884872436523e-01
-1.821177899837493896e-01 -2.535149157047271729e-01 3.417020738124847412e-01
9.703832119703292847e-02 2.313270866870880127e-01 5.331170558929443359e-01
-3.388082087039947510e-01 -3.538085222244262695e-01 -2.930999398231506348e-01
-3.258264362812042236e-01 -4.328882694244384766e-01 -1.150979623198509216e-01
4.841514527797698975e-01 5.840207338333129883e-01 -1.422609481960535049e-02
5.341562628746032715e-01 3.705309629440307617e-01 -1.398546993732452393e-01
-3.844293057918548584e-01 -2.239472419023513794e-01 8.689203858375549316e-02
-6.904671788215637207e-01 -3.432184755802154541e-01 3.474915325641632080e-01
-1.862280815839767456e-01 5.594890713691711426e-01 5.253395438194274902e-01
-1.030094549059867859e-01 -4.389271736145019531e-01 -3.284996747970581055e-01
2.148098349571228027e-01 -4.544604122638702393e-01 -3.634091019630432129e-01
1.384709030389785767e-01 -5.072944760322570801e-01 -7.567311823368072510e-02
-5.006401538848876953e-01 -3.017731606960296631e-01 3.335748612880706787e-01
-2.111728638410568237e-01 -2.410006523132324219e-01 -3.299052417278289795e-01
-8.777336776256561279e-02 -1.837061494588851929e-01 -4.769133329391479492e-01
5.494000315666198730e-01 3.632717430591583252e-01 5.158169940114021301e-02
-4.425660669803619385e-01 -2.482631206512451172e-01 -1.616053134202957153e-01
-3.963601291179656982e-01 -5.367904901504516602e-01 -4.677196219563484192e-02
4.386809170246124268e-01 1.335543394088745117e-01 -1.102725192904472351e-01
-3.934828639030456543e-01 -5.183541029691696167e-02 1.627044379711151123e-01
5.005563497543334961e-01 -8.954335004091262817e-02 2.998072840273380280e-02
-1.946514844894409180e-01 -4.595172032713890076e-02 3.798706233501434326e-01
5.138006210327148438e-01 9.538029879331588745e-02 1.202701628208160400e-01
-3.908622264862060547e-01 -1.933676600456237793e-01 -8.911306411027908325e-02
2.580449581146240234e-01 -1.474631130695343018e-01 -3.186784982681274414e-01
-3.342133164405822754e-01 2.412994392216205597e-02 3.960388600826263428e-01
3.022833168506622314e-01 4.040375947952270508e-01 -3.662326037883758545e-01
6.872840970754623413e-02 1.422099918127059937e-01 4.470652043819427490e-01
3.692852556705474854e-01 2.435958385467529297e-01 -2.805647850036621094e-01
-4.469225704669952393e-01 -2.562063336372375488e-01 2.194577902555465698e-01
-2.283246219158172607e-01 -5.156075358390808105e-01 -7.889369875192642212e-02
2.056838124990463257e-01 -6.279394030570983887e-02 3.702414333820343018e-01
-3.561874479055404663e-02 -6.651374101638793945e-01 -6.317232847213745117e-01
2.344370037317276001e-01 3.216352164745330811e-01 4.055348932743072510e-01
5.333406329154968262e-01 1.437529772520065308e-01 1.929306541569530964e-03
-1.080714091658592224e-01 -2.244684100151062012e-02 4.996281564235687256e-01
3.530412614345550537e-01 -4.596155285835266113e-01 -2.293310463428497314e-01
-1.244787052273750305e-01 -5.355377793312072754e-01 3.569045066833496094e-01
2.840666770935058594e-01 -3.921655192971229553e-02 -4.243280589580535889e-01
3.800806999206542969e-01 -2.859679460525512695e-01 2.728466875851154327e-02
-3.598254323005676270e-01 4.287917912006378174e-01 3.103702068328857422e-01
2.323656231164932251e-01 -3.526521623134613037e-01 2.808872759342193604e-01
-5.282844901084899902e-01 -1.805352419614791870e-01 3.520443439483642578e-01
5.975591540336608887e-01 -5.149707198143005371e-01 2.938116788864135742e-01
-6.529963016510009766e-01 -4.603206813335418701e-01 4.018204808235168457e-01
3.920133411884307861e-01 1.165263280272483826e-01 -2.218857258558273315e-01
3.742435872554779053e-01 4.073249399662017822e-01 2.900090813636779785e-01
6.639496237039566040e-02 4.142757356166839600e-01 1.381953209638595581e-01
2.874822020530700684e-01 -3.871304988861083984e-01 2.098805010318756104e-01
-1.657338589429855347e-01 3.609523773193359375e-01 5.256561040878295898e-01
-3.148172795772552490e-01 -8.427210152149200439e-02 2.792804241180419922e-01
2.475030124187469482e-01 2.211253792047500610e-01 3.886999487876892090e-01
-3.826788067817687988e-01 -4.912799000740051270e-01 -1.526109427213668823e-01
4.199855029582977295e-02 -3.340330123901367188e-01 -6.426389813423156738e-01
1.857556961476802826e-02 -5.110647678375244141e-01 1.972643733024597168e-01
-4.489981755614280701e-02 -5.116960406303405762e-01 -2.010987699031829834e-01
6.814445555210113525e-02 -5.044419765472412109e-01 9.733075648546218872e-02
-3.218826651573181152e-01 -4.461728632450103760e-01 1.136632710695266724e-01
2.176663577556610107e-01 1.637728959321975708e-01 -4.903850555419921875e-01
-6.629262864589691162e-02 2.689992189407348633e-01 4.597463905811309814e-01
5.862415209412574768e-02 -2.902271449565887451e-01 -4.583705365657806396e-01
-4.104090631008148193e-01 -1.323229521512985229e-01 2.742109894752502441e-01
4.048384428024291992e-01 3.536629080772399902e-01 -2.421986162662506104e-01
3.337260186672210693e-01 -3.766885101795196533e-01 -1.333294063806533813e-01
3.059960901737213135e-01 4.142757356166839600e-01 -1.504933387041091919e-01
1.555050164461135864e-01 -3.990419209003448486e-01 -4.079465270042419434e-01
3.769187331199645996e-01 -4.896911680698394775e-01 1.850062310695648193e-01
-3.263618052005767822e-02 -1.222527027130126953e-01 -4.979084432125091553e-01
3.890855610370635986e-01 4.594866186380386353e-02 2.068943977355957031e-01
5.275316238403320312e-01 -3.630338907241821289e-01 2.592787444591522217e-01
-4.512465596199035645e-01 7.880977541208267212e-02 2.690298557281494141e-01
-6.545988917350769043e-01 -6.322657465934753418e-01 3.363100886344909668e-01
-2.682168409228324890e-02 -5.036670565605163574e-01 4.071882367134094238e-01
-3.204928711056709290e-02 -4.455394744873046875e-01 3.391653299331665039e-01
1.238410919904708862e-01 -4.363726079463958740e-01 -2.129326760768890381e-01
-5.336647108197212219e-02 -1.996167749166488647e-01 4.765347540378570557e-01
-5.280480384826660156e-01 -5.115161538124084473e-01 3.518927693367004395e-01
4.782426357269287109e-01 8.457379788160324097e-02 2.199347019195556641e-01
3.324874639511108398e-01 5.350350141525268555e-01 4.463349282741546631e-01
2.823967933654785156e-01 -2.102777808904647827e-01 2.778244912624359131e-01
2.661008238792419434e-01 4.886078536510467529e-01 3.958111703395843506e-01
3.995477557182312012e-01 -1.352227330207824707e-01 2.873691022396087646e-01
-2.224305123090744019e-01 -5.253871679306030273e-01 2.218860238790512085e-01
1.263462901115417480e-01 -2.273618429899215698e-01 3.723860681056976318e-01
4.347240328788757324e-01 3.341506421566009521e-01 -3.375299274921417236e-01
6.541972160339355469e-01 -4.515542984008789062e-01 3.217431306838989258e-01
4.132942259311676025e-01 4.142757356166839600e-01 -2.442702464759349823e-02
4.812828600406646729e-01 -1.942625194787979126e-01 2.188417315483093262e-02
5.070345997810363770e-01 5.341669321060180664e-01 -2.328415513038635254e-01
2.800095826387405396e-02 7.857300341129302979e-02 5.247589945793151855e-01
-2.816125750541687012e-01 -5.201273560523986816e-01 2.882150411605834961e-01
5.220562815666198730e-01 -6.550069451332092285e-01 3.388803005218505859e-01
2.532107234001159668e-01 -3.602952659130096436e-01 -2.612105906009674072e-01
3.035621047019958496e-01 -4.440066218376159668e-01 2.297812327742576599e-02
4.222379326820373535e-01 -4.509115219116210938e-01 1.602503471076488495e-02
3.739606440067291260e-01 1.608499698340892792e-02 3.564977049827575684e-01
3.972972333431243896e-01 -1.763553172349929810e-01 -7.523836195468902588e-02
1.896594166755676270e-01 5.874780938029289246e-02 -4.884512424468994141e-01
4.507843852043151855e-01 -1.345765292644500732e-01 -1.997792571783065796e-01
2.847896516323089600e-01 4.142757356166839600e-01 6.845200061798095703e-02
6.544906497001647949e-01 -1.007836237549781799e-01 3.218719661235809326e-01
-3.118171989917755127e-01 -1.972994953393936157e-01 2.490705698728561401e-01
4.031514227390289307e-01 1.200233846902847290e-01 3.453854918479919434e-01
4.451751708984375000e-01 2.577911317348480225e-01 -1.338364928960800171e-01
-2.335238456726074219e-01 3.522551655769348145e-01 4.084085822105407715e-01
1.576972603797912598e-01 -2.007876336574554443e-01 -3.672070503234863281e-01
3.650872707366943359e-01 5.017573237419128418e-01 -4.224537014961242676e-01
6.054853275418281555e-02 -3.683755397796630859e-01 4.381274878978729248e-01
2.297366559505462646e-01 -5.235675573348999023e-01 -1.982435733079910278e-01
1.479272693395614624e-01 5.202994942665100098e-01 5.362183451652526855e-01
4.407591223716735840e-01 4.527063667774200439e-02 -1.304450444877147675e-02
-3.747330904006958008e-01 -5.183331966400146484e-01 1.503230631351470947e-01
4.363007247447967529e-01 5.134767293930053711e-01 3.453489840030670166e-01
-2.341378480195999146e-01 -4.147187471389770508e-01 2.592319548130035400e-01
-9.608510881662368774e-02 -5.036439895629882812e-01 4.787398502230644226e-02
-1.083594635128974915e-01 5.863385796546936035e-01 4.740968048572540283e-01
1.754530332982540131e-02 5.500835180282592773e-01 5.564664602279663086e-01
1.898314207792282104e-01 -1.651832014322280884e-01 4.474867284297943115e-01
5.572841167449951172e-01 5.476329922676086426e-01 -3.145371377468109131e-02
4.976921901106834412e-02 5.253585577011108398e-01 4.741907715797424316e-01
-4.351394176483154297e-01 -3.985752165317535400e-01 2.898100018501281738e-01
4.617357850074768066e-01 5.033880472183227539e-01 -1.207994222640991211e-01
9.960966557264328003e-02 3.116051554679870605e-01 4.575150310993194580e-01
3.074950575828552246e-01 -5.248651504516601562e-01 -4.925613850355148315e-02
2.667718529701232910e-01 4.257017374038696289e-01 4.853449165821075439e-01
4.819036722183227539e-01 1.820990145206451416e-01 -2.411076277494430542e-01
4.228595793247222900e-01 -3.879359662532806396e-01 1.144005209207534790e-01
2.244218140840530396e-01 -1.070386841893196106e-01 -4.458113014698028564e-01
-9.850770980119705200e-02 -1.672574132680892944e-01 3.924320340156555176e-01
4.318782389163970947e-01 3.121382594108581543e-01 3.371178805828094482e-01
-4.648798704147338867e-02 4.142757356166839600e-01 2.280195653438568115e-01
-6.092655062675476074e-01 -6.963485479354858398e-01 3.042753338813781738e-01
2.922450900077819824e-01 1.990050077438354492e-01 -3.553476035594940186e-01
-3.696750104427337646e-02 -2.730648815631866455e-01 -5.640342831611633301e-01
-3.965271711349487305e-01 3.997103273868560791e-01 3.852939009666442871e-01
3.947460278868675232e-02 -4.441186487674713135e-01 3.014212548732757568e-01
1.268626451492309570e-01 -6.422701757401227951e-03 -4.154662787914276123e-01
-3.235928714275360107e-01 -3.346974551677703857e-01 3.135358989238739014e-01
-2.569831013679504395e-01 -5.237371325492858887e-01 -1.630984395742416382e-01
-4.893590509891510010e-01 -1.529091149568557739e-01 -8.946799673140048981e-03
2.815012037754058838e-01 -4.436665773391723633e-01 -3.192668557167053223e-01
3.372220396995544434e-01 2.856350243091583252e-01 -4.310334622859954834e-01
2.412354201078414917e-01 -5.166332125663757324e-01 6.143992021679878235e-02
-3.247065544128417969e-01 -2.503973841667175293e-01 -3.407597541809082031e-01
-4.178020954132080078e-01 1.285012513399124146e-01 1.703561544418334961e-01
-5.318121314048767090e-01 -4.130677580833435059e-01 2.613279223442077637e-01
5.406674742698669434e-01 -3.992854952812194824e-01 3.604050278663635254e-01
3.742379546165466309e-01 -3.757376968860626221e-01 -2.353773862123489380e-01
-4.392324388027191162e-02 4.142757356166839600e-01 9.100545942783355713e-02
-4.527361094951629639e-01 2.824828922748565674e-01 3.065816760063171387e-01
1.779908388853073120e-01 -4.347028136253356934e-01 1.473353356122970581e-01
1.256010029464960098e-03 -5.026309490203857422e-01 -9.134184569120407104e-02
-1.420509517192840576e-01 -4.319241046905517578e-01 -1.495874971151351929e-01
2.115585207939147949e-01 -3.159337043762207031e-01 4.029132127761840820e-01
3.536402881145477295e-01 5.744837522506713867e-01 -3.230476677417755127e-01
-5.892613530158996582e-01 -1.007230356335639954e-01 2.896470129489898682e-01
-4.201863333582878113e-02 -4.821140766143798828e-01 -6.409600377082824707e-01
-2.415972054004669189e-01 -4.382337331771850586e-01 9.816031903028488159e-02
5.024326592683792114e-02 -3.496528565883636475e-01 -3.631940782070159912e-01
5.359302163124084473e-01 -5.584473013877868652e-01 2.634121179580688477e-01
5.084117650985717773e-01 -1.478260476142168045e-02 6.390488147735595703e-02
5.358461737632751465e-01 -1.087223961949348450e-01 2.633747458457946777e-01
-3.385620415210723877e-01 2.177977710962295532e-01 4.211067557334899902e-01
-1.764196008443832397e-01 -3.152136802673339844e-01 -4.210949242115020752e-01
2.601878941059112549e-01 -1.662731021642684937e-01 4.108582437038421631e-01
4.984011054039001465e-01 3.337270617485046387e-01 2.324778884649276733e-01
-3.642686083912849426e-02 4.507376551628112793e-01 5.545022487640380859e-01
6.546684503555297852e-01 -6.313941478729248047e-01 3.403357565402984619e-01
2.178719639778137207e-01 -2.302481979131698608e-01 3.267189562320709229e-01
4.121906161308288574e-01 4.143392741680145264e-01 -3.722856044769287109e-01
-4.213880002498626709e-01 -4.845805764198303223e-01 2.806140780448913574e-01
3.673664033412933350e-01 4.169093668460845947e-01 -3.015053868293762207e-01
-2.546879351139068604e-01 3.349428474903106689e-01 4.870617389678955078e-01
3.770982623100280762e-01 2.312538325786590576e-01 2.666872739791870117e-01
4.462502300739288330e-01 2.810773849487304688e-01 1.350711435079574585e-01
-1.332796923816204071e-02 2.359898239374160767e-01 5.416494011878967285e-01
1.469165459275245667e-02 -4.274834990501403809e-01 1.559778749942779541e-01
3.305419683456420898e-01 4.960132539272308350e-01 3.429797291755676270e-01
3.877858817577362061e-01 5.817836523056030273e-01 2.848728299140930176e-01
-3.410685062408447266e-01 -3.494692742824554443e-01 1.317070573568344116e-01
5.442141294479370117e-01 2.565689384937286377e-01 -2.991907671093940735e-02
-3.873031586408615112e-02 -4.397214949131011963e-01 -2.708682715892791748e-01
-5.735623836517333984e-01 -6.053816676139831543e-01 3.823014199733734131e-01
1.821405291557312012e-01 -4.305939674377441406e-01 -6.300476938486099243e-02
-1.301653534173965454e-01 -5.265868902206420898e-01 -2.965447902679443359e-01
5.217342376708984375e-01 -3.940933197736740112e-02 3.284927606582641602e-01
-1.284347623586654663e-01 2.928058207035064697e-01 5.311101675033569336e-01
2.735637426376342773e-01 -3.739221394062042236e-02 3.291892409324645996e-01
-5.254809558391571045e-02 1.566807627677917480e-01 5.315765738487243652e-01
1.912412345409393311e-01 -4.358022809028625488e-01 3.808850049972534180e-01
2.682705968618392944e-02 -5.192711353302001953e-01 -2.702896296977996826e-01
-3.153660334646701813e-03 -9.618864953517913818e-02 4.176631867885589600e-01
-4.488623440265655518e-01 -3.445139229297637939e-01 -1.779148913919925690e-02
5.012532472610473633e-01 4.187654554843902588e-01 -2.389822155237197876e-01
6.817319393157958984e-01 -3.941787481307983398e-01 3.716636300086975098e-01
-3.143546581268310547e-01 -5.253157019615173340e-01 6.371201481670141220e-03
6.519573330879211426e-01 -3.028681576251983643e-01 4.261129200458526611e-01
2.946747243404388428e-01 7.365222275257110596e-02 -3.350307345390319824e-01
4.704794287681579590e-01 3.417991995811462402e-01 -2.133537270128726959e-02
-3.706389665603637695e-01 2.168076336383819580e-01 2.730706036090850830e-01
-5.041766762733459473e-01 -5.757229328155517578e-01 2.488115280866622925e-01
-9.425075724720954895e-03 -3.180678188800811768e-01 3.722787797451019287e-01
-2.069472223520278931e-01 -1.647840589284896851e-01 4.405332207679748535e-01
-1.013184115290641785e-01 1.743719428777694702e-01 4.446310698986053467e-01
5.444860458374023438e-01 -2.453283667564392090e-01 3.629550933837890625e-01
3.263159096240997314e-01 -3.018310964107513428e-01 1.877969503402709961e-01
9.705735370516777039e-03 -2.058484703302383423e-01 -3.986465930938720703e-01
2.821397483348846436e-01 5.876602530479431152e-01 4.679366946220397949e-01
-2.827631831169128418e-01 -1.453203707933425903e-01 4.007021188735961914e-01
-1.885936111211776733e-01 4.817028343677520752e-01 5.231302380561828613e-01
-5.066985487937927246e-01 -1.095831543207168579e-01 3.376225829124450684e-01
1.681144386529922485e-01 -2.878932654857635498e-02 4.819735288619995117e-01
-7.699854671955108643e-02 3.436231017112731934e-01 4.636732041835784912e-01
3.499600291252136230e-01 9.183433651924133301e-02 2.772913277149200439e-01
3.786749243736267090e-01 -5.380582213401794434e-01 1.023998931050300598e-01
4.461637139320373535e-01 -2.900050282478332520e-01 -1.177191808819770813e-01
-1.696046739816665649e-01 -5.892650783061981201e-02 4.761700928211212158e-01
4.055830463767051697e-02 -1.337573230266571045e-01 -6.207562088966369629e-01
-5.691738426685333252e-02 -3.797892034053802490e-01 -3.547860980033874512e-01
-3.547486960887908936e-01 3.429961800575256348e-01 3.099217116832733154e-01
2.708873748779296875e-01 -2.148951739072799683e-01 -3.945285677909851074e-01
8.190165460109710693e-02 4.063503146171569824e-01 5.468392968177795410e-01
4.131273329257965088e-01 -1.263752877712249756e-01 -1.309737446717917919e-03
-3.251721560955047607e-01 -2.674695253372192383e-01 -2.071148306131362915e-01
3.776905238628387451e-01 -5.348157286643981934e-01 2.460462898015975952e-01
4.956709444522857666e-01 -4.778834581375122070e-01 3.303382992744445801e-01
5.054638385772705078e-01 5.995212793350219727e-01 -1.671808958053588867e-01
3.044010102748870850e-01 -5.270744562149047852e-01 1.165152788162231445e-01
1.305803209543228149e-01 -2.148686349391937256e-01 -4.599592983722686768e-01
4.699630662798881531e-02 -4.433880448341369629e-01 -7.188611030578613281e-01
-1.221809834241867065e-01 -2.672522664070129395e-01 -4.509189426898956299e-01
3.714509680867195129e-02 -5.105121731758117676e-01 -5.687042474746704102e-01
6.158354878425598145e-01 -5.539023876190185547e-01 4.061838984489440918e-01
4.109729826450347900e-01 -1.619382798671722412e-01 -2.640905082225799561e-01
3.442409932613372803e-01 -7.164422422647476196e-02 -2.467981278896331787e-01
3.123947978019714355e-01 1.664475500583648682e-01 -4.365426898002624512e-01
4.171521663665771484e-01 -4.455973207950592041e-01 -7.794611901044845581e-02
-2.291167378425598145e-01 4.444517791271209717e-01 4.158782362937927246e-01
-3.404667973518371582e-01 6.005915999412536621e-02 2.828902006149291992e-01
4.082654714584350586e-01 3.371647559106349945e-03 1.493568420410156250e-01
4.552304446697235107e-01 2.068456560373306274e-01 -6.582649797201156616e-02
5.225592851638793945e-01 2.009312510490417480e-01 1.324033886194229126e-01
4.187714755535125732e-01 -1.354047097265720367e-02 2.955759763717651367e-01
-4.611018300056457520e-02 -5.227482914924621582e-01 -7.368153333663940430e-01
1.177508011460304260e-01 4.142757356166839600e-01 8.556776493787765503e-02
3.174858391284942627e-01 -4.269897043704986572e-01 1.371809244155883789e-01
2.010075934231281281e-02 6.285241339355707169e-03 5.148268938064575195e-01
-4.563628435134887695e-01 -1.072150319814682007e-01 1.975328028202056885e-01
-4.437096118927001953e-01 -3.497778177261352539e-01 5.819391459226608276e-02
3.503175973892211914e-01 7.120724767446517944e-02 -2.741938531398773193e-01
-5.261784195899963379e-01 -4.258135333657264709e-02 2.713001370429992676e-01
-1.270096898078918457e-01 -4.280603826045989990e-01 1.040829420089721680e-01
-3.700733482837677002e-01 -2.593590617179870605e-01 -1.130839884281158447e-01
8.356754668056964874e-03 -3.943390548229217529e-01 -7.776231169700622559e-01
4.182264208793640137e-02 -2.733433544635772705e-01 -7.859773635864257812e-01
4.049845039844512939e-01 -5.646871402859687805e-02 -1.326260119676589966e-01
1.592587083578109741e-01 4.142757356166839600e-01 4.091363549232482910e-01
1.182242706418037415e-01 -4.635452628135681152e-01 4.011515080928802490e-01
5.771357417106628418e-01 -1.842744499444961548e-01 3.847710490226745605e-01
-5.093970298767089844e-01 -1.946424990892410278e-01 2.502694725990295410e-01
1.724484860897064209e-01 -3.764772713184356689e-01 3.141554296016693115e-01
2.570213675498962402e-01 9.720339626073837280e-02 4.602631926536560059e-01
-4.445083066821098328e-02 -6.715134978294372559e-01 -7.111016511917114258e-01
-2.372111529111862183e-01 1.854071766138076782e-01 3.907289206981658936e-01
-4.998087882995605469e-02 -2.326223850250244141e-01 -7.745816707611083984e-01
-2.581140100955963135e-01 -2.395149767398834229e-01 2.936433851718902588e-01
3.997682034969329834e-01 4.142757356166839600e-01 1.413205713033676147e-01
1.612927913665771484e-01 5.221570655703544617e-02 4.964281618595123291e-01
-3.612542450428009033e-01 -5.012331008911132812e-01 2.404376119375228882e-01
4.113929867744445801e-01 1.816857457160949707e-01 -3.475351035594940186e-01
-3.905883431434631348e-01 3.721083328127861023e-02 2.021433711051940918e-01
-2.864638268947601318e-01 5.812003016471862793e-01 4.739897251129150391e-01
1.665351092815399170e-01 2.397164404392242432e-01 5.165159702301025391e-01
-6.912087649106979370e-02 6.503345817327499390e-02 4.373304545879364014e-01
9.718344360589981079e-02 -5.212631076574325562e-02 -4.992392063140869141e-01
-2.611126005649566650e-01 -7.777041196823120117e-02 3.304952681064605713e-01
-4.846032857894897461e-01 -1.516758054494857788e-01 6.915516406297683716e-02
1.463356316089630127e-01 1.576203256845474243e-01 4.306756556034088135e-01
-3.207281604409217834e-02 -4.218401908874511719e-01 -4.891857504844665527e-01
-4.894891679286956787e-01 -6.137871742248535156e-01 3.124994933605194092e-01
4.414325058460235596e-01 7.354052364826202393e-02 5.219295620918273926e-02
-1.497368514537811279e-01 -5.089917182922363281e-01 -9.529460221529006958e-02
3.615525960922241211e-01 1.522875428199768066e-01 3.931002318859100342e-01
-3.928548693656921387e-01 -6.925430148839950562e-02 3.150380253791809082e-01
-1.080863177776336670e-01 -3.106116652488708496e-01 4.429559707641601562e-01
4.606854617595672607e-01 2.383722364902496338e-01 4.494560509920120239e-02
-2.319376021623611450e-01 -5.192679166793823242e-01 1.385864168405532837e-01
1.722273975610733032e-01 3.352811932563781738e-01 4.365842044353485107e-01
-6.463534832000732422e-01 -7.350169122219085693e-02 4.033999145030975342e-01
2.049387432634830475e-02 -5.344507098197937012e-01 -4.349328279495239258e-01
-6.081565618515014648e-01 -2.112667709589004517e-01 4.054173231124877930e-01
2.634862959384918213e-01 1.144335791468620300e-01 3.638093173503875732e-01
-2.500330507755279541e-01 -4.743450582027435303e-01 3.317964375019073486e-01
5.421362519264221191e-01 3.968536555767059326e-01 1.133079901337623596e-01
1.958395093679428101e-01 5.783603191375732422e-01 5.214509963989257812e-01
-1.244425773620605469e-01 -2.471355795860290527e-01 -3.704526722431182861e-01
4.656394422054290771e-01 -2.545459866523742676e-01 5.505756661295890808e-02
5.077759027481079102e-01 3.014890290796756744e-02 -1.115245223045349121e-01
3.129678964614868164e-02 -2.484594881534576416e-01 4.693019986152648926e-01
-4.379579424858093262e-01 -3.558896780014038086e-01 -9.033990651369094849e-02
-6.652885079383850098e-01 -1.222086772322654724e-01 3.271534144878387451e-01
-3.101325780153274536e-02 -5.028020143508911133e-01 -4.730736017227172852e-01
-3.218489885330200195e-01 5.341218709945678711e-01 3.527432680130004883e-01
1.612674593925476074e-01 -1.194893382489681244e-02 4.003625214099884033e-01
-3.804963231086730957e-01 -3.615021705627441406e-01 -2.315793037414550781e-01
4.720821976661682129e-01 -1.422222424298524857e-02 -2.007147818803787231e-01
4.208567440509796143e-01 4.142757356166839600e-01 -1.298332363367080688e-01
4.213114455342292786e-02 2.062705457210540771e-01 4.573167562484741211e-01
-9.029214829206466675e-02 -8.984759449958801270e-02 4.921195209026336670e-01
-6.830881237983703613e-01 -4.163480103015899658e-01 3.562878668308258057e-01
5.114806294441223145e-01 1.738725155591964722e-01 -1.651262789964675903e-01
3.013466894626617432e-01 -5.313342213630676270e-01 2.639512121677398682e-01
-3.648913204669952393e-01 -1.605929583311080933e-01 3.241544663906097412e-01
-2.025343626737594604e-01 1.906665414571762085e-01 4.979448914527893066e-01
2.794476151466369629e-01 2.902918495237827301e-02 -4.388317167758941650e-01
4.726242125034332275e-01 4.142757356166839600e-01 2.005565539002418518e-02
3.681072294712066650e-01 4.142757356166839600e-01 -7.827674597501754761e-02
-8.769407868385314941e-02 -4.236486256122589111e-01 -5.890547856688499451e-02
4.414027035236358643e-01 -5.394585728645324707e-01 2.940736413002014160e-01
2.774618007242679596e-02 4.551063477993011475e-01 4.749453961849212646e-01
-1.341883242130279541e-01 -3.110101521015167236e-01 3.492565155029296875e-01
4.650389850139617920e-01 5.072116255760192871e-01 -3.090255856513977051e-01
6.525253057479858398e-01 -1.633993387222290039e-01 4.335304498672485352e-01
-4.092887341976165771e-01 -3.970727622509002686e-01 1.506584733724594116e-01
3.187824785709381104e-02 -3.516291677951812744e-01 -4.880850017070770264e-01
-2.257840633392333984e-01 -4.341797530651092529e-01 -2.254583872854709625e-02
8.227796852588653564e-02 -5.157838463783264160e-01 -2.289317846298217773e-01
-3.726081550121307373e-01 -1.665161550045013428e-01 1.594795435667037964e-01
1.433710753917694092e-01 -9.402193129062652588e-02 4.781559407711029053e-01
3.140959739685058594e-01 4.142757356166839600e-01 2.374079823493957520e-01
-5.660597085952758789e-01 -4.596221745014190674e-01 3.772865533828735352e-01
-6.896340847015380859e-01 -1.924847960472106934e-01 4.178152680397033691e-01
-2.168499082326889038e-01 2.692671120166778564e-01 4.112991690635681152e-01
8.267945051193237305e-02 -4.230813682079315186e-01 -4.843933507800102234e-02
-1.296062171459197998e-01 -4.383899569511413574e-01 2.272530347108840942e-01
-1.882779896259307861e-01 5.137423053383827209e-02 4.861765205860137939e-01
4.886821284890174866e-02 2.825396955013275146e-01 5.436810255050659180e-01
-6.537489593029022217e-02 -3.060015439987182617e-01 -4.539763033390045166e-01
-1.422337293624877930e-01 1.268804520368576050e-01 5.112723708152770996e-01
-2.385013550519943237e-01 -5.153309702873229980e-01 -1.083362568169832230e-02
4.228603467345237732e-02 -4.282294511795043945e-01 -1.621587872505187988e-01
3.888398110866546631e-01 -4.928814768791198730e-01 -1.362740397453308105e-01
-4.088297784328460693e-01 -5.012542605400085449e-01 1.110476814210414886e-02
-3.925189375877380371e-01 -2.177541702985763550e-01 2.705847322940826416e-01
5.791674554347991943e-02 -4.215534627437591553e-01 1.593200489878654480e-02
2.327290326356887817e-01 4.142757356166839600e-01 -1.095179021358489990e-01
1.364470180124044418e-02 -5.013682246208190918e-01 4.758831486105918884e-02
4.057694971561431885e-02 -5.584036111831665039e-01 -6.208651065826416016e-01
-3.657727241516113281e-01 -2.971409857273101807e-01 9.509506821632385254e-02
-4.538530409336090088e-01 1.462189257144927979e-01 2.804143130779266357e-01
-3.460015654563903809e-01 4.721329808235168457e-01 4.345749318599700928e-01
3.798878490924835205e-01 -4.474772810935974121e-01 2.529735267162322998e-01
4.609500765800476074e-01 -2.850247919559478760e-01 3.071338832378387451e-01
4.824489057064056396e-01 -4.333180189132690430e-01 2.370498031377792358e-01
1.140016242861747742e-01 5.789862275123596191e-01 4.639031589031219482e-01
4.060810804367065430e-01 5.173740163445472717e-02 -3.292225897312164307e-01
-2.096556723117828369e-01 -3.711073696613311768e-01 3.890858590602874756e-01
-1.657156646251678467e-01 -3.969514667987823486e-01 -3.140287101268768311e-01
2.645719051361083984e-01 -2.942551374435424805e-01 -2.718807756900787354e-01
4.460255205631256104e-01 2.468917369842529297e-01 3.105732500553131104e-01
2.520331144332885742e-01 -3.017214238643646240e-01 -3.849803507328033447e-01
3.235231935977935791e-01 2.623504698276519775e-01 -3.347062468528747559e-01
4.126283824443817139e-01 4.311917126178741455e-01 3.708901703357696533e-01
-3.466292023658752441e-01 -4.103789031505584717e-01 5.266688019037246704e-02
-4.938429221510887146e-02 -5.317229032516479492e-01 -3.530944287776947021e-01
2.343060821294784546e-01 1.177456602454185486e-01 -3.854146599769592285e-01
4.266126751899719238e-01 1.569057852029800415e-01 1.571780294179916382e-01
1.484982222318649292e-01 -1.273563504219055176e-01 3.846020698547363281e-01
3.797467947006225586e-01 -3.237573206424713135e-01 2.528714835643768311e-01
4.228428900241851807e-01 2.695403993129730225e-01 -1.960762739181518555e-01
-4.332545995712280273e-01 -2.707906365394592285e-01 2.885422110557556152e-01
-2.177001237869262695e-01 -4.401009976863861084e-01 -2.659505605697631836e-01
-4.090975224971771240e-01 -3.245019614696502686e-01 1.966838389635086060e-01
8.560784906148910522e-02 -3.397251963615417480e-01 3.572159111499786377e-01
5.771939754486083984e-01 -3.489462733268737793e-01 3.848108947277069092e-01
3.282648026943206787e-01 -4.127468168735504150e-01 -2.829349935054779053e-01
3.549029827117919922e-01 -3.715545237064361572e-01 6.345095485448837280e-02
4.602927565574645996e-01 2.302900515496730804e-02 2.381200641393661499e-01
-2.895866632461547852e-01 -1.765524409711360931e-02 4.224899113178253174e-01
-2.725111544132232666e-01 -2.585164308547973633e-01 -3.819975554943084717e-01
-1.020459979772567749e-01 5.130123496055603027e-01 4.659006595611572266e-01
5.480456948280334473e-01 3.066887855529785156e-01 1.361168548464775085e-02
1.347574591636657715e-01 4.551560282707214355e-01 5.381259918212890625e-01
-4.513606429100036621e-01 -2.742404043674468994e-01 1.104248389601707458e-01
-1.375883966684341431e-01 -1.135450154542922974e-01 3.918403387069702148e-01
2.306161373853683472e-01 5.500489473342895508e-01 4.175270497798919678e-01
-3.394705057144165039e-02 -1.968177258968353271e-01 -5.179857611656188965e-01
5.055946111679077148e-01 5.789180994033813477e-01 2.340235412120819092e-01
1.757000684738159180e-01 -5.063431262969970703e-01 3.672086894512176514e-01
-3.519323766231536865e-01 -3.866932094097137451e-01 -5.981394276022911072e-02
3.230602145195007324e-01 -3.319148421287536621e-01 -1.810957789421081543e-01
-4.720415174961090088e-01 -2.399782389402389526e-01 -3.225780650973320007e-02
-2.016439437866210938e-01 5.140163376927375793e-02 3.926874399185180664e-01
-3.297285139560699463e-01 -3.667313158512115479e-01 -1.497659236192703247e-01
-4.132655560970306396e-01 -4.730441570281982422e-01 -5.295800417661666870e-02
4.056950211524963379e-01 -3.792261332273483276e-02 -3.084027767181396484e-01
-1.534469723701477051e-01 3.184079658240079880e-03 4.061064720153808594e-01
2.987561523914337158e-01 2.528584003448486328e-01 4.547301828861236572e-01
-4.738448932766914368e-02 -5.120612978935241699e-01 2.021722346544265747e-01
-1.185889095067977905e-01 4.142757356166839600e-01 2.451184242963790894e-01
2.742992639541625977e-01 -1.183837205171585083e-01 3.110820353031158447e-01
4.638266265392303467e-01 6.675784289836883545e-02 -2.456641048192977905e-01
3.810659348964691162e-01 -3.066467940807342529e-01 -2.558617293834686279e-01
-5.461997389793395996e-01 -3.288262486457824707e-01 2.684245407581329346e-01
3.998117744922637939e-01 -5.332599878311157227e-01 2.221944555640220642e-02
2.016981393098831177e-01 -4.437699019908905029e-01 2.751077413558959961e-01
3.018259704113006592e-01 4.142757356166839600e-01 3.644574284553527832e-01
4.061437845230102539e-01 -7.787306606769561768e-02 1.129277646541595459e-01
2.042797654867172241e-01 2.643409371376037598e-01 4.177632629871368408e-01
5.335675477981567383e-01 -1.745142936706542969e-01 2.622498571872711182e-01
3.625763654708862305e-01 4.297797679901123047e-01 -4.217754900455474854e-01
6.562976837158203125e-01 -2.543637454509735107e-01 3.227790892124176025e-01
-3.235625922679901123e-01 -3.166403472423553467e-01 1.858081072568893433e-01
4.368060454726219177e-02 -6.547208428382873535e-01 -6.681931614875793457e-01
-4.229122027754783630e-02 2.633307129144668579e-02 5.166474580764770508e-01
5.316732525825500488e-01 1.648088246583938599e-01 6.392701715230941772e-02
-3.639238476753234863e-01 1.345304697751998901e-01 3.881749212741851807e-01
2.688831984996795654e-01 4.142757356166839600e-01 -2.081906497478485107e-01
-3.999269902706146240e-01 -1.062898486852645874e-01 1.170624569058418274e-01
4.045845270156860352e-01 -1.481628865003585815e-01 5.964145809412002563e-02
4.137571156024932861e-02 -3.986231386661529541e-01 -6.331589221954345703e-01
5.325865745544433594e-01 -1.430138051509857178e-01 3.549974262714385986e-01
-4.404417574405670166e-01 1.451892126351594925e-02 2.702650725841522217e-01
-1.007432043552398682e-01 -5.074396729469299316e-01 1.224679201841354370e-01
-4.907346144318580627e-02 -3.629405796527862549e-01 -7.485766410827636719e-01
4.602019190788269043e-01 3.050233125686645508e-01 -9.172501415014266968e-02
-3.968621790409088135e-01 -4.107656180858612061e-01 -1.735499948263168335e-01
3.775506019592285156e-01 -2.264961898326873779e-01 -1.118734329938888550e-01
5.180062651634216309e-01 2.598646581172943115e-01 1.695738285779953003e-01
1.532799452543258667e-01 -5.069897174835205078e-01 -1.254319865256547928e-02
4.219857454299926758e-01 -2.607703506946563721e-01 2.023820579051971436e-01
3.848674595355987549e-01 -1.476235389709472656e-01 -1.409069597721099854e-01
-1.997188478708267212e-01 -4.546218216419219971e-01 -3.721413612365722656e-01
4.573430120944976807e-02 -5.189343094825744629e-01 -6.996799707412719727e-01
1.908189803361892700e-01 4.142757356166839600e-01 2.342743128538131714e-01
-5.047785043716430664e-01 -3.692179545760154724e-02 6.699335575103759766e-02
2.706550061702728271e-01 -4.446027874946594238e-01 -1.484103798866271973e-01
2.979830503463745117e-01 -1.038228645920753479e-01 -2.928833663463592529e-01
-1.427318006753921509e-01 4.306588172912597656e-01 4.526126384735107422e-01
6.365135312080383301e-02 -2.272607088088989258e-01 -4.712764918804168701e-01
-1.954084821045398712e-02 -1.494810879230499268e-01 -4.097499251365661621e-01
3.681506514549255371e-01 -2.186548709869384766e-02 2.232725471258163452e-01
-3.753857016563415527e-01 -2.943702936172485352e-01 -5.149251595139503479e-02
6.033062338829040527e-01 -4.741656780242919922e-01 4.022605121135711670e-01
-1.998825222253799438e-01 -5.117715001106262207e-01 4.805056378245353699e-02
-2.437556721270084381e-02 -5.884116888046264648e-01 -5.499706864356994629e-01
4.836145639419555664e-01 -5.958355069160461426e-01 2.640855312347412109e-01
-2.471315115690231323e-01 -4.992759525775909424e-01 -3.272685110569000244e-01
-2.707636058330535889e-01 5.805965885519981384e-02 4.466386139392852783e-01
-9.485279768705368042e-02 -5.177662968635559082e-01 -2.415292412042617798e-01
2.466640919446945190e-01 4.142757356166839600e-01 5.585610400885343552e-03
-3.511822819709777832e-01 -3.962561786174774170e-01 2.581590414047241211e-01
6.618665903806686401e-02 -1.464553028345108032e-01 4.851267933845520020e-01
8.236534893512725830e-03 -5.329053401947021484e-01 3.620533943176269531e-01
2.797690331935882568e-01 -2.052770461887121201e-03 4.316112697124481201e-01
-1.427955329418182373e-01 -4.801996350288391113e-01 -3.905296325683593750e-01
-2.526500821113586426e-01 5.534389019012451172e-01 4.048968851566314697e-01
-1.317293941974639893e-01 2.800391912460327148e-01 4.464752674102783203e-01
1.118923872709274292e-01 -7.248944789171218872e-02 -4.085211455821990967e-01
4.439863264560699463e-01 -3.646775782108306885e-01 3.339810995385050774e-03
4.768012464046478271e-01 4.928970336914062500e-01 1.860192790627479553e-02
5.541785359382629395e-01 5.119126439094543457e-01 5.606713145971298218e-02
3.564912676811218262e-01 1.681002527475357056e-01 2.833068072795867920e-01
3.224063292145729065e-02 -4.430671930313110352e-01 -2.968426346778869629e-01
-7.069521397352218628e-02 -2.597751021385192871e-01 4.617658257484436035e-01
-4.160257577896118164e-01 -2.520891129970550537e-01 -2.194902002811431885e-01
2.672514319419860840e-01 -4.380104839801788330e-01 3.305683732032775879e-01
-3.515041768550872803e-01 1.495345532894134521e-01 2.867054343223571777e-01
-4.031199812889099121e-01 -1.795292645692825317e-01 -1.984070613980293274e-02
1.599470525979995728e-01 -4.490478038787841797e-01 -2.986007332801818848e-01
-4.629084840416908264e-02 5.995212793350219727e-01 5.299531221389770508e-01
1.207624673843383789e-01 -5.094045400619506836e-01 -1.363501250743865967e-01
3.854656815528869629e-01 2.944081723690032959e-01 -3.893074691295623779e-01
1.712027192115783691e-01 -8.601815998554229736e-02 -4.724663197994232178e-01
1.205357387661933899e-01 -2.795189619064331055e-01 -4.485190510749816895e-01
4.521863460540771484e-01 -8.790206164121627808e-02 2.161571532487869263e-01
3.801982998847961426e-01 5.467234849929809570e-01 4.070400297641754150e-01
3.316579163074493408e-01 5.764995217323303223e-01 3.432337939739227295e-01
4.242271482944488525e-01 -3.644796609878540039e-01 -1.333410441875457764e-01
4.717652201652526855e-01 5.471264123916625977e-01 -7.677346467971801758e-02
1.622201353311538696e-01 4.142757356166839600e-01 -8.870697766542434692e-02
4.774527251720428467e-01 -1.930884867906570435e-01 -6.330471485853195190e-02
-1.364634484052658081e-01 -2.337845861911773682e-01 4.525502920150756836e-01
3.982723653316497803e-01 5.857298374176025391e-01 -2.803718745708465576e-01
-3.014200329780578613e-01 -2.295489907264709473e-01 -2.534801363945007324e-01
4.678029417991638184e-01 3.144780099391937256e-01 2.859352827072143555e-01
1.605220288038253784e-01 -2.463471591472625732e-01 4.420719444751739502e-01
-3.194002807140350342e-02 -1.425335854291915894e-01 4.903096258640289307e-01
4.145950078964233398e-02 4.142757356166839600e-01 3.073247075080871582e-01
-4.156107306480407715e-01 -1.486668922007083893e-02 1.174450144171714783e-01
6.357210874557495117e-01 -6.907302737236022949e-01 3.356681466102600098e-01
3.051019012928009033e-01 -3.508121967315673828e-01 3.265415430068969727e-01
-6.401780843734741211e-01 -2.471587359905242920e-01 3.147708773612976074e-01
-7.566289603710174561e-02 -3.635799884796142578e-01 4.372889697551727295e-01
5.131344795227050781e-01 5.995212793350219727e-01 1.181004121899604797e-01
-3.164780139923095703e-01 4.623892009258270264e-01 3.560119271278381348e-01
-5.964163541793823242e-01 -4.833929240703582764e-01 2.931857407093048096e-01
3.594728410243988037e-01 2.135790139436721802e-01 4.039101302623748779e-01
-4.479416832327842712e-02 -3.988376259803771973e-01 -6.834059357643127441e-01
7.669438421726226807e-02 -5.033062100410461426e-01 -6.909585744142532349e-02
3.708181381225585938e-01 1.802308559417724609e-01 -2.685797512531280518e-01
4.974842444062232971e-02 -4.449930489063262939e-01 4.200513362884521484e-01
4.800651371479034424e-01 5.958466529846191406e-01 -2.449696511030197144e-01
4.189552962779998779e-01 4.004739224910736084e-01 2.207618206739425659e-01
-6.502563953399658203e-01 -5.554680824279785156e-01 3.785660564899444580e-01
-4.615135490894317627e-01 -1.426218450069427490e-01 3.074227571487426758e-01
9.862002730369567871e-02 -4.414449930191040039e-01 -2.690867185592651367e-01
-2.709809839725494385e-01 -3.914295732975006104e-01 -3.444567322731018066e-01
4.701933264732360840e-01 -1.472936719655990601e-01 -1.405391544103622437e-01
-7.076319307088851929e-02 3.122559189796447754e-01 5.429736375808715820e-01
4.336942136287689209e-01 -1.924884021282196045e-01 -2.124363481998443604e-01
-2.815223932266235352e-01 -5.299482345581054688e-01 -2.862609624862670898e-01
-1.523017138242721558e-01 -4.149091839790344238e-01 -4.050387144088745117e-01
4.480887353420257568e-01 5.995212793350219727e-01 2.424832284450531006e-01
6.963469386100769043e-01 -2.102976143360137939e-01 4.009065330028533936e-01
4.197638034820556641e-01 9.975045919418334961e-02 -1.580537557601928711e-01
3.272003531455993652e-01 -1.252421587705612183e-01 3.708702325820922852e-01
4.598616659641265869e-01 5.079302191734313965e-01 1.263612955808639526e-01
3.445411920547485352e-01 -8.549647778272628784e-02 -3.652236759662628174e-01
4.339255765080451965e-02 4.090639576315879822e-02 4.373970329761505127e-01
1.830679774284362793e-01 -5.129531025886535645e-01 -1.173143833875656128e-01
4.614185988903045654e-01 -6.232025846838951111e-02 3.068726062774658203e-01
2.025566101074218750e-01 -1.614977866411209106e-01 -3.533444106578826904e-01
-3.892980217933654785e-01 3.230473995208740234e-01 3.864818513393402100e-01
4.646708071231842041e-01 3.868249058723449707e-01 9.232532232999801636e-02
4.562536180019378662e-01 1.721467822790145874e-01 1.989594846963882446e-02
-3.207919374108314514e-02 8.855562657117843628e-02 5.259710550308227539e-01
1.902319788932800293e-01 5.082010030746459961e-01 4.367867708206176758e-01
-1.453399658203125000e-01 1.346267461776733398e-01 4.283432662487030029e-01
-2.785013318061828613e-01 -4.413821399211883545e-01 -6.317700445652008057e-02
-4.472212791442871094e-01 -2.344482243061065674e-01 1.560099571943283081e-01
4.171632826328277588e-01 3.220974802970886230e-01 2.149810791015625000e-01
3.005495369434356689e-01 3.259642720222473145e-01 -3.620565831661224365e-01
6.642469167709350586e-01 -4.505702555179595947e-01 3.852329552173614502e-01
8.468833565711975098e-02 4.142757356166839600e-01 3.996097445487976074e-01
