-3.619852960109710693e-01 6.845167875289916992e-01 -2.406407594680786133e-01
-5.903820693492889404e-02 -1.279038488864898682e-01 -4.115776121616363525e-01
2.842118740081787109e-01 6.643566489219665527e-01 -3.180200755596160889e-01
-1.714686453342437744e-01 -5.568747967481613159e-02 -3.823768794536590576e-01
4.655083119869232178e-01 5.414643138647079468e-02 3.658866137266159058e-02
-4.531139731407165527e-01 -2.094577066600322723e-03 -5.353180319070816040e-02
-2.015367522835731506e-02 4.055123627185821533e-01 5.112225413322448730e-01
-4.559794366359710693e-01 6.455631852149963379e-01 1.262893378734588623e-01
2.736585438251495361e-01 3.226979970932006836e-01 -3.261187672615051270e-01
-5.498410016298294067e-02 1.013423055410385132e-01 -8.682685494422912598e-01
2.764424681663513184e-02 -3.369367122650146484e-01 -5.900070667266845703e-01
2.369907125830650330e-02 1.461976021528244019e-01 5.108258724212646484e-01
-3.763934969902038574e-01 3.784171938896179199e-01 3.163921535015106201e-01
-2.770543396472930908e-01 -2.849096655845642090e-01 -3.231068849563598633e-01
2.749150693416595459e-01 -4.920136928558349609e-01 -3.251545131206512451e-01
-1.847436130046844482e-01 -1.934387162327766418e-02 4.714038372039794922e-01
-4.365439116954803467e-01 -4.370478093624114990e-01 2.016958445310592651e-01
-4.136776924133300781e-01 4.978715628385543823e-02 2.569038569927215576e-01
2.290049642324447632e-01 6.870043277740478516e-01 4.532918334007263184e-01
2.897312641143798828e-01 -3.528603911399841309e-01 -3.137844800949096680e-01
3.890939056873321533e-01 6.067177653312683105e-01 -2.059924304485321045e-01
-3.980796933174133301e-01 -6.946903467178344727e-01 -1.054918766021728516e-01
8.448623865842819214e-02 5.990028381347656250e-01 5.028228163719177246e-01
-4.162146449089050293e-01 -8.375280350446701050e-02 -1.562515348196029663e-01
1.547206938266754150e-01 8.181819319725036621e-01 4.840606451034545898e-01
-3.382336199283599854e-01 -5.373360961675643921e-02 3.661210238933563232e-01
2.210119664669036865e-01 9.489666670560836792e-02 -3.620770871639251709e-01
-4.557760953903198242e-01 1.164243146777153015e-01 -3.330889344215393066e-02
3.135367929935455322e-01 2.253933697938919067e-01 3.900432586669921875e-01
-3.619503080844879150e-01 -6.946903467178344727e-01 6.911072134971618652e-02
-4.428496062755584717e-01 2.972453236579895020e-01 1.864714175462722778e-01
3.607034087181091309e-01 6.327690482139587402e-01 -2.429912984371185303e-01
-1.512816362082958221e-02 2.008551806211471558e-01 5.118842124938964844e-01
-1.462600231170654297e-01 7.275583595037460327e-02 4.873438179492950439e-01
-4.468874335289001465e-01 -4.666053950786590576e-01 -8.219695836305618286e-02
2.584415972232818604e-01 -2.370758056640625000e-01 -3.377963602542877197e-01
-3.409908115863800049e-01 -6.946903467178344727e-01 -2.109553366899490356e-01
-4.220629036426544189e-01 -5.199556350708007812e-01 2.366587072610855103e-01
-1.179017201066017151e-01 5.200951099395751953e-01 -5.683230757713317871e-01
3.164274096488952637e-01 5.330978035926818848e-01 3.878250122070312500e-01
-3.990665674209594727e-01 -6.462294459342956543e-01 -1.923174858093261719e-01
-4.564356505870819092e-01 7.020769119262695312e-01 -2.829827740788459778e-02
-2.280103415250778198e-01 -2.908110022544860840e-01 -3.589570820331573486e-01
-2.575232684612274170e-01 -6.946903467178344727e-01 1.997252702713012695e-01
-4.570271670818328857e-01 -3.867964446544647217e-01 1.183303594589233398e-01
-4.630168378353118896e-01 -4.307044148445129395e-01 2.169637382030487061e-02
4.642547667026519775e-01 1.422052681446075439e-01 2.707160450518131256e-02
-2.434140592813491821e-01 -6.042563319206237793e-01 -3.489196300506591797e-01
3.485141098499298096e-01 2.284576147794723511e-01 -2.588764727115631104e-01
-3.948321938514709473e-01 -1.013197600841522217e-01 -1.978356093168258667e-01
-1.188893839716911316e-01 5.480630993843078613e-01 -4.504835307598114014e-01
4.080120846629142761e-02 6.269880533218383789e-01 5.085742473602294922e-01
5.102008581161499023e-02 7.678745985031127930e-01 -4.127034246921539307e-01
4.313729703426361084e-01 8.608032464981079102e-01 1.504050791263580322e-01
-4.244222342967987061e-01 -1.667042076587677002e-01 -1.364355832338333130e-01
2.253379374742507935e-01 -6.946903467178344727e-01 -2.946586310863494873e-01
-2.112143933773040771e-01 -1.745020598173141479e-01 4.604394733905792236e-01
7.601796835660934448e-02 4.472813606262207031e-01 -6.929630637168884277e-01
-4.355500638484954834e-01 4.996256828308105469e-01 2.040954381227493286e-01
-1.160707399249076843e-01 -5.894058942794799805e-01 -4.040687382221221924e-01
-4.571788012981414795e-01 1.706311404705047607e-01 -2.265295013785362244e-02
4.358563944697380066e-02 -2.289003133773803711e-01 -7.446565032005310059e-01
4.431034624576568604e-01 5.821211338043212891e-01 -9.259381145238876343e-02
-3.017719686031341553e-01 1.679794639348983765e-01 -3.041406869888305664e-01
-1.802585870027542114e-01 -6.946903467178344727e-01 -2.383757531642913818e-01
-3.025501370429992676e-01 1.532463729381561279e-01 3.980706036090850830e-01
4.552468955516815186e-01 6.241906285285949707e-01 1.358436197042465210e-01
2.309302836656570435e-01 1.913180202245712280e-01 -3.579688966274261475e-01
1.933052390813827515e-01 4.738997817039489746e-01 -3.735533356666564941e-01
-1.087573021650314331e-01 6.542302370071411133e-01 -4.050316214561462402e-01
4.174244999885559082e-01 2.948504984378814697e-01 -1.545885801315307617e-01
-3.760383129119873047e-01 -6.666427254676818848e-01 3.168550133705139160e-01
-4.576206207275390625e-01 8.081732392311096191e-01 -1.929651014506816864e-02
-2.635325491428375244e-01 -4.299348294734954834e-01 -3.334824144840240479e-01
-1.420262008905410767e-01 -4.973827600479125977e-01 -3.945720493793487549e-01
-1.756921992637217045e-04 3.650652766227722168e-01 -7.731059789657592773e-01
-3.516524732112884521e-01 -1.911391131579875946e-02 -2.541062235832214355e-01
-4.635846912860870361e-01 -7.651332765817642212e-02 2.601003646850585938e-02
3.363081514835357666e-01 4.563595950603485107e-01 3.693111836910247803e-01
-3.150139153003692627e-01 -6.946903467178344727e-01 2.858378291130065918e-01
-4.636344313621520996e-01 -6.459558606147766113e-01 2.638786286115646362e-02
-4.545065462589263916e-01 -1.528407335281372070e-01 -4.295300692319869995e-02
-4.493941068649291992e-01 8.035652637481689453e-01 1.706705093383789062e-01
-3.468306958675384521e-01 -6.946903467178344727e-01 2.230283431708812714e-02
-4.481696784496307373e-01 4.910118877887725830e-01 -7.910111546516418457e-02
-4.313055574893951416e-01 6.803587675094604492e-01 -1.198169365525245667e-01
1.651020050048828125e-01 7.083065509796142578e-01 -3.852351903915405273e-01
-4.088782370090484619e-01 -2.771017849445343018e-01 -1.739641278982162476e-01
-3.448935151100158691e-01 -8.093453198671340942e-02 -2.629142701625823975e-01
3.614536672830581665e-02 7.359868884086608887e-01 5.091872215270996094e-01
2.645139396190643311e-01 -1.734363734722137451e-01 -3.331363797187805176e-01
2.728936970233917236e-01 8.608032464981079102e-01 3.942651748657226562e-01
-4.597104489803314209e-01 3.590786457061767578e-01 -3.421074477955698967e-03
-4.397531151771545410e-01 7.792420983314514160e-01 -9.942157566547393799e-02
-1.189634650945663452e-01 8.318303823471069336e-01 -4.036878645420074463e-01
4.525785744190216064e-01 1.824021935462951660e-01 1.561022102832794189e-01
-3.608579039573669434e-01 -4.471699893474578857e-01 -2.421099841594696045e-01
4.476504325866699219e-01 7.882434129714965820e-01 -8.161643147468566895e-02
9.429906308650970459e-02 6.493424177169799805e-01 -4.070054292678833008e-01
-4.026793241500854492e-01 6.364575028419494629e-01 2.821372449398040771e-01
4.166546165943145752e-01 2.591389715671539307e-01 2.509744465351104736e-01
1.837556958198547363e-01 -1.266333013772964478e-01 -3.775087893009185791e-01
-5.164080113172531128e-02 -6.946903467178344727e-01 -5.274903401732444763e-02
2.000209540128707886e-01 5.774188637733459473e-01 4.652970731258392334e-01
4.512258768081665039e-01 5.567910075187683105e-01 1.663722097873687744e-01
-1.643988639116287231e-01 7.392007112503051758e-01 4.798306822776794434e-01
-3.104779124259948730e-01 5.936448574066162109e-01 3.919876515865325928e-01
-1.805640012025833130e-01 7.550337910652160645e-01 -3.786095678806304932e-01
-4.508999884128570557e-01 -4.811902940273284912e-01 1.648759096860885620e-01
-3.946179747581481934e-01 8.608032464981079102e-01 2.423903793096542358e-01
-1.294678747653961182e-01 1.900475025177001953e-01 -3.997737467288970947e-01
-3.979871571063995361e-01 -1.298624183982610703e-02 -1.937241852283477783e-01
-8.150959759950637817e-02 1.891717612743377686e-01 -4.086190164089202881e-01
4.013173580169677734e-01 7.079824209213256836e-01 2.845904529094696045e-01
-2.455187439918518066e-01 -3.498729467391967773e-01 -3.473046720027923584e-01
-2.650583684444427490e-01 1.642716079950332642e-01 4.268377721309661865e-01
-3.001938164234161377e-01 3.700624704360961914e-01 -3.053516149520874023e-01
7.420145720243453979e-02 -3.381547927856445312e-01 -5.878525972366333008e-01
4.302202463150024414e-01 -1.126720085740089417e-01 -1.236967667937278748e-01
1.959088295698165894e-01 -6.946903467178344727e-01 -3.375616967678070068e-01
4.526724219322204590e-01 3.885608538985252380e-02 -6.086433678865432739e-02
-2.182031124830245972e-01 4.080668985843658447e-01 4.575447738170623779e-01
-4.616698026657104492e-01 -3.299293518066406250e-01 1.146335992962121964e-02
2.996012866497039795e-01 -1.031292453408241272e-01 -3.062101304531097412e-01
2.154255658388137817e-02 3.783002123236656189e-02 -8.637094497680664062e-01
-4.337656795978546143e-01 -8.226747810840606689e-02 2.084036320447921753e-01
-1.175041198730468750e-01 4.202805757522583008e-01 -4.038800001144409180e-01
-4.338419530540704727e-03 -1.456788033246994019e-01 -8.079607486724853516e-01
1.822068691253662109e-01 -6.946903467178344727e-01 -2.547708451747894287e-01
1.210781410336494446e-01 -1.756858527660369873e-01 -4.034700393676757812e-01
2.491850107908248901e-01 -6.523722410202026367e-01 -3.448999524116516113e-01
-4.101588428020477295e-01 -4.044103324413299561e-01 -1.708722859621047974e-01
-1.326291412115097046e-01 4.660800099372863770e-01 4.929898083209991455e-01
3.032499924302101135e-03 2.492105066776275635e-01 -4.190213084220886230e-01
3.035309314727783203e-01 4.492960572242736816e-01 -3.031944930553436279e-01
-4.606325328350067139e-01 7.351533770561218262e-01 3.583748126402497292e-03
-2.287353016436100006e-02 8.608032464981079102e-01 4.989475309848785400e-01
-2.477104812860488892e-01 4.230124177411198616e-04 4.401487410068511963e-01
-4.592211842536926270e-01 -2.447584122419357300e-01 -7.137762848287820816e-03
-4.455618262290954590e-01 -3.642251491546630859e-01 1.799231022596359253e-01
2.131918817758560181e-01 8.175086975097656250e-01 4.598416686058044434e-01
-3.028046786785125732e-01 -6.527527570724487305e-01 -3.033482432365417480e-01
-4.651324450969696045e-01 -4.959649145603179932e-01 3.776776790618896484e-02
1.056313142180442810e-02 3.471473455429077148e-01 -4.180298447608947754e-01
-4.532513618469238281e-01 -3.468560799956321716e-02 1.470133662223815918e-01
-3.140463307499885559e-02 2.168630659580230713e-01 -4.152158498764038086e-01
-4.604831710457801819e-02 5.505111217498779297e-01 5.078132748603820801e-01
3.118969202041625977e-01 8.608032464981079102e-01 -2.732802331447601318e-01
-4.131407141685485840e-01 9.526649862527847290e-02 -1.636730283498764038e-01
2.687859833240509033e-01 7.864209413528442383e-01 -3.298580348491668701e-01
1.150489449501037598e-01 1.076331213116645813e-01 -4.042735993862152100e-01
2.546763420104980469e-01 -1.233301982283592224e-01 -3.406858444213867188e-01
-8.764898777008056641e-02 8.172009587287902832e-01 5.023362040519714355e-01
4.541969299316406250e-01 7.053438425064086914e-01 1.438153535127639771e-01
-4.537493288516998291e-01 -2.185426801443099976e-01 1.432305127382278442e-01
4.277505278587341309e-01 6.089869141578674316e-01 2.241858392953872681e-01
-2.255300879478454590e-01 -2.673930227756500244e-01 4.545099139213562012e-01
4.062160849571228027e-01 3.893959522247314453e-01 -1.816481947898864746e-01
4.713230952620506287e-02 -6.442534923553466797e-01 -4.132152795791625977e-01
-2.309449203312397003e-02 5.323297381401062012e-01 -5.371864438056945801e-01
1.298638135194778442e-01 -4.827636182308197021e-01 -3.998309969902038574e-01
4.547611810266971588e-03 4.575392007827758789e-01 -6.802451610565185547e-01
2.421348094940185547e-01 2.426850646734237671e-01 4.448359310626983643e-01
-4.012703895568847656e-01 -1.479281485080718994e-01 2.839733064174652100e-01
-4.111704528331756592e-01 1.330336332321166992e-01 2.629573047161102295e-01
-3.305557072162628174e-01 -1.265623122453689575e-01 3.761265873908996582e-01
-3.263759911060333252e-01 -3.590955436229705811e-01 -2.852615714073181152e-01
6.888169050216674805e-02 -5.458484888076782227e-01 -4.103517830371856689e-01
-1.913238316774368286e-01 6.947277784347534180e-01 -3.741527795791625977e-01
-3.541789650917053223e-01 -1.703693866729736328e-01 3.453414738178253174e-01
5.871017277240753174e-02 5.371187925338745117e-01 -5.241928100585937500e-01
4.651567935943603516e-01 4.762810170650482178e-01 6.060547381639480591e-02
3.617437481880187988e-01 -3.543051704764366150e-02 -2.416355013847351074e-01
3.342926204204559326e-01 -9.341832250356674194e-02 -2.774101197719573975e-01
4.489331543445587158e-01 2.427495568990707397e-01 -7.851959764957427979e-02
2.442664951086044312e-01 2.812627851963043213e-01 -3.486744463443756104e-01
-4.655947089195251465e-01 -2.258610129356384277e-01 5.324615165591239929e-02
-4.032781124114990234e-01 7.978125214576721191e-01 -1.868291497230529785e-01
-7.203077524900436401e-02 1.778637468814849854e-01 -8.582053184509277344e-01
-9.238428901880979538e-04 1.611812263727188110e-01 -8.603373169898986816e-01
1.111929677426815033e-02 -4.360444545745849609e-01 -4.179566502571105957e-01
-2.719734609127044678e-01 -6.946903467178344727e-01 -3.438042104244232178e-02
-1.140681207180023193e-01 -2.624433338642120361e-01 -7.073363065719604492e-01
6.372027844190597534e-02 -3.629596531391143799e-01 -5.093531012535095215e-01
-4.615853726863861084e-01 4.924914538860321045e-01 1.082213409245014191e-02
-3.530201017856597900e-01 7.426165342330932617e-01 3.468516767024993896e-01
-3.123708367347717285e-01 8.037707805633544922e-01 -2.960079610347747803e-01
4.345157369971275330e-02 8.139643073081970215e-01 -4.136998653411865234e-01
4.633032381534576416e-01 3.514443337917327881e-01 7.467822730541229248e-02
-2.835353612899780273e-01 7.574288845062255859e-01 4.126605391502380371e-01
4.433072209358215332e-01 8.180106878280639648e-01 1.866277158260345459e-01
-4.644706249237060547e-01 5.200526118278503418e-01 6.178524717688560486e-02
-6.789360940456390381e-02 -6.946903467178344727e-01 -1.881438791751861572e-01
-3.099769912660121918e-02 4.840545356273651123e-01 5.097948312759399414e-01
-4.182828068733215332e-01 -6.946903467178344727e-01 2.212348282337188721e-01
-3.539180755615234375e-01 5.269801616668701172e-01 -2.511537373065948486e-01
-3.483035266399383545e-01 3.674507141113281250e-02 3.529981970787048340e-01
-3.069664537906646729e-01 8.369599580764770508e-01 3.946820199489593506e-01
-5.657943338155746460e-02 7.716541886329650879e-01 5.064268112182617188e-01
4.237439632415771484e-01 4.690316319465637207e-01 -1.393319964408874512e-01
-4.214549064636230469e-01 -4.456238448619842529e-01 -1.435997039079666138e-01
4.005109965801239014e-01 7.086140662431716919e-02 -1.911135464906692505e-01
1.020557507872581482e-01 6.913705468177795410e-01 -4.059842228889465332e-01
-2.469534724950790405e-01 7.086216807365417480e-01 4.407295286655426025e-01
3.720972537994384766e-01 2.670849263668060303e-01 3.226704001426696777e-01
-9.534625709056854248e-02 -1.232774630188941956e-01 -8.169764280319213867e-01
-8.424570411443710327e-02 2.646686434745788574e-01 -4.082588255405426025e-01
-2.409828752279281616e-01 3.084667026996612549e-01 -3.507851362228393555e-01
-3.040608763694763184e-01 4.811714589595794678e-01 -3.023843467235565186e-01
-1.760696619749069214e-01 8.278093338012695312e-01 4.749965667724609375e-01
-2.252298593521118164e-01 3.975755721330642700e-02 -3.601088225841522217e-01
2.444692552089691162e-01 5.267221927642822266e-01 -3.485188484191894531e-01
-3.606024682521820068e-01 3.446576595306396484e-01 3.369705677032470703e-01
-2.458539903163909912e-01 4.293097853660583496e-01 -3.470474481582641602e-01
-3.538661301136016846e-01 6.026166677474975586e-01 -2.512214481830596924e-01
2.401644736528396606e-01 7.274222970008850098e-01 4.463479220867156982e-01
2.182184308767318726e-01 -6.008767485618591309e-01 -3.632341623306274414e-01
6.219550967216491699e-03 1.020655632019042969e-01 -8.681170940399169922e-01
-1.686123609542846680e-01 7.860280275344848633e-01 4.780853986740112305e-01
7.053047418594360352e-02 2.573679089546203613e-01 -4.101347327232360840e-01
3.515975782647728920e-03 5.614775419235229492e-01 5.134831070899963379e-01
-2.473084032535552979e-01 2.956118583679199219e-01 4.404571950435638428e-01
1.680669337511062622e-01 -6.609355807304382324e-01 -3.840071260929107666e-01
-4.504436552524566650e-01 8.574260026216506958e-02 -7.361102104187011719e-02
-1.813195943832397461e-01 2.418350577354431152e-01 4.728220403194427490e-01
-4.618484377861022949e-01 2.951288819313049316e-01 8.170514553785324097e-02
1.906450092792510986e-01 2.991521060466766357e-01 4.691806435585021973e-01
1.189431175589561462e-01 6.232139468193054199e-01 4.982863664627075195e-01
-4.429731070995330811e-01 6.170711517333984375e-01 -9.164742380380630493e-02
4.442571103572845459e-01 -2.873104810714721680e-02 -8.980863541364669800e-02
3.910010457038879395e-01 -3.753886371850967407e-02 -2.035070210695266724e-01
3.522711694240570068e-01 -2.885728478431701660e-01 -2.539802491664886475e-01
4.601576924324035645e-01 7.467615008354187012e-01 -4.034351557493209839e-03
2.346940040588378906e-01 6.373555064201354980e-01 4.505459070205688477e-01
-2.446228265762329102e-01 3.557644188404083252e-01 4.425178766250610352e-01
-4.512737095355987549e-01 4.320089817047119141e-01 -6.751130521297454834e-02
-1.866948753595352173e-01 -6.410050988197326660e-01 -3.760700821876525879e-01
-1.704207956790924072e-01 -3.106149733066558838e-01 -3.828108906745910645e-01
-6.738551706075668335e-02 4.825767576694488525e-01 -6.482732295989990234e-01
-3.250366151332855225e-01 3.236415088176727295e-01 3.808169066905975342e-01
-3.154893815517425537e-01 -4.657694101333618164e-01 3.881424367427825928e-01
-1.028549149632453918e-01 -3.813405334949493408e-01 -4.238813817501068115e-01
-4.606900811195373535e-01 -1.978161185979843140e-01 9.050463140010833740e-02
-2.059145867824554443e-01 4.807479381561279297e-01 4.626347124576568604e-01
2.789222896099090576e-01 -5.684676766395568848e-01 -3.220793008804321289e-01
-3.610210120677947998e-01 -1.933144405484199524e-02 3.364251255989074707e-01
-2.749016582965850830e-01 -4.997209012508392334e-01 -3.247586786746978760e-01
3.822581842541694641e-02 5.234971642494201660e-01 5.089132785797119141e-01
-4.149070084095001221e-01 4.971504807472229004e-01 -1.594086736440658569e-01
4.295014142990112305e-01 6.608062386512756348e-01 2.199587374925613403e-01
3.205944597721099854e-01 7.989844679832458496e-01 -2.900997996330261230e-01
-3.734126091003417969e-01 -5.164399147033691406e-01 -2.257490456104278564e-01
-3.401801884174346924e-01 6.942883729934692383e-01 3.635842800140380859e-01
1.645898669958114624e-01 -5.099036097526550293e-01 -3.854473233222961426e-01
4.259097874164581299e-01 7.720873355865478516e-01 2.286299616098403931e-01
-1.586194187402725220e-01 6.621493697166442871e-01 4.822244942188262939e-01
4.005545675754547119e-01 8.291494846343994141e-01 -1.910567879676818848e-01
-4.298740625381469727e-01 -6.946903467178344727e-01 1.692796051502227783e-01
4.090168178081512451e-01 1.087156534194946289e-01 -1.748866140842437744e-01
-4.544243216514587402e-01 -6.573083400726318359e-01 -4.357765614986419678e-02
-4.419144690036773682e-01 2.254525870084762573e-01 -9.420335292816162109e-02
1.111914962530136108e-01 5.428090095520019531e-01 -4.781742095947265625e-01
-4.474940598011016846e-01 3.313016593456268311e-01 -8.073235303163528442e-02
1.277183368802070618e-02 -6.946903467178344727e-01 -3.635538816452026367e-01
-4.662936925888061523e-01 -6.830462217330932617e-01 4.658909887075424194e-02
4.438750147819519043e-01 3.191840350627899170e-01 -9.073109924793243408e-02
-2.278641164302825928e-01 5.787799507379531860e-02 4.535430967807769775e-01
-4.453569948673248291e-01 -1.127778664231300354e-01 -8.589193969964981079e-02
6.654511392116546631e-02 1.892994046211242676e-01 -4.106594324111938477e-01
-1.817922294139862061e-01 4.473412632942199707e-01 -3.781007826328277588e-01
-3.901335299015045166e-01 -5.770698189735412598e-01 2.984865307807922363e-01
1.692014485597610474e-01 7.599227428436279297e-01 4.780626893043518066e-01
-4.540258944034576416e-01 -2.741989791393280029e-01 1.411296129226684570e-01
3.774119317531585693e-01 3.451496064662933350e-01 -2.212165296077728271e-01
-2.589251101016998291e-01 5.581303238868713379e-01 -3.370177745819091797e-01
-4.516114592552185059e-01 4.183473289012908936e-01 1.594713777303695679e-01
1.625361740589141846e-01 -6.156414374709129333e-02 -3.862979710102081299e-01
4.237291216850280762e-01 1.994330435991287231e-01 -1.393678784370422363e-01
-2.498733848333358765e-01 2.287365794181823730e-01 -3.439633250236511230e-01
-2.661314010620117188e-01 -8.308475464582443237e-02 4.260144829750061035e-01
-4.632007181644439697e-01 -5.875928401947021484e-01 7.143238931894302368e-02
-2.167695164680480957e-01 -4.387179017066955566e-01 -3.636130988597869873e-01
4.630383849143981934e-01 8.163706064224243164e-01 1.783637516200542450e-02
-4.138890802860260010e-01 -3.524958491325378418e-01 2.563934922218322754e-01
-3.475293219089508057e-01 4.935747683048248291e-01 3.540071249008178711e-01
-4.519159495830535889e-01 -5.202253907918930054e-02 -6.263257563114166260e-02
1.360293328762054443e-01 -9.793782234191894531e-02 -3.972771763801574707e-01
-4.205664098262786865e-01 2.323820292949676514e-01 2.402717322111129761e-01
-4.522125720977783203e-01 3.607350885868072510e-01 1.549048274755477905e-01
-1.488318145275115967e-01 -2.222114354372024536e-01 -3.917531371116638184e-01
-3.069451153278350830e-01 3.793753683567047119e-01 3.946983516216278076e-01
-2.995566427707672119e-01 -1.449038926512002945e-02 4.003675282001495361e-01
-4.622948169708251953e-01 -5.882937312126159668e-01 1.621135696768760681e-02
-4.024400115013122559e-01 6.986478567123413086e-01 2.824490666389465332e-01
4.636766016483306885e-01 7.120552062988281250e-01 7.184349745512008667e-02
7.738395035266876221e-02 -2.699097096920013428e-01 -4.092324376106262207e-01
2.597154863178730011e-02 -3.328430950641632080e-01 -4.160012602806091309e-01
4.633106887340545654e-01 3.896242976188659668e-01 1.990383677184581757e-02
4.268368780612945557e-01 5.520878434181213379e-01 -1.318649798631668091e-01
-3.795434534549713135e-01 -3.441776335239410400e-01 -2.177594751119613647e-01
3.265304863452911377e-01 8.131484389305114746e-01 3.800720572471618652e-01
-4.638278186321258545e-01 -5.783592909574508667e-02 6.666854768991470337e-02
-4.636250734329223633e-01 5.983012914657592773e-02 6.820853054523468018e-02
-2.861261963844299316e-01 -2.073794305324554443e-01 -3.161459267139434814e-01
3.947408869862556458e-02 -6.849137544631958008e-01 -4.142235219478607178e-01
-8.416577428579330444e-02 8.069394230842590332e-01 -4.082693159580230713e-01
2.168162316083908081e-01 3.833049237728118896e-01 -3.638149499893188477e-01
-1.741031110286712646e-01 -1.035926491022109985e-01 4.758111238479614258e-01
3.875259459018707275e-01 7.149552106857299805e-01 -2.080358117818832397e-01
-3.811386525630950928e-01 5.326380133628845215e-01 -2.156806588172912598e-01
-3.188067078590393066e-01 -6.946903467178344727e-01 -1.177057325839996338e-01
-1.621776819229125977e-01 -6.946903467178344727e-01 -2.885516546666622162e-02
-9.590197354555130005e-02 -3.429018259048461914e-01 -5.735232830047607422e-01
-4.848033189773559570e-02 -2.585677802562713623e-01 -7.129830718040466309e-01
4.581477046012878418e-01 5.358102917671203613e-01 1.138201430439949036e-01
3.312496244907379150e-01 3.041816353797912598e-01 3.759034872055053711e-01
-4.572480618953704834e-01 -5.331150293350219727e-01 1.166522130370140076e-01
4.526329934597015381e-01 2.509446144104003906e-01 1.556891053915023804e-01
-4.485867619514465332e-01 6.724843382835388184e-01 1.726197004318237305e-01
2.857067286968231201e-01 -6.113901138305664062e-01 -3.168728947639465332e-01
-4.646800756454467773e-01 -3.918652534484863281e-01 3.433105349540710449e-02
1.553184688091278076e-01 6.579700112342834473e-01 4.838130474090576172e-01
-1.232320889830589294e-01 5.616627335548400879e-01 4.968820810317993164e-01
-4.147266745567321777e-01 7.627501487731933594e-01 2.543711960315704346e-01
-4.385013878345489502e-01 -3.230680525302886963e-01 -1.024437025189399719e-01
4.584538638591766357e-01 1.276905685663223267e-01 1.114957556128501892e-01
-3.907828927040100098e-01 -4.310825467109680176e-01 2.976402938365936279e-01
-1.733388751745223999e-01 6.598314642906188965e-01 -3.816022276878356934e-01
-4.243836700916290283e-01 3.580778837203979492e-01 2.310553938150405884e-01
1.727107763290405273e-01 2.442618459463119507e-01 -3.820836246013641357e-01
9.819757193326950073e-02 7.914195060729980469e-01 5.010176301002502441e-01
3.349914252758026123e-01 6.250666379928588867e-01 3.710271418094635010e-01
-1.180953681468963623e-01 -1.868503242731094360e-01 -4.038021862506866455e-01
4.615073800086975098e-01 2.120223939418792725e-01 6.212704814970493317e-03
-4.546093344688415527e-01 6.406888365745544434e-01 -4.217205941677093506e-02
-4.371376708149909973e-02 -6.763674020767211914e-01 -4.135951995849609375e-01
9.705944359302520752e-02 -6.946903467178344727e-01 -2.254090160131454468e-01
3.667021691799163818e-01 1.406145542860031128e-01 -2.351735830307006836e-01
2.982942759990692139e-01 -2.413018941879272461e-01 -3.072130978107452393e-01
-1.257335096597671509e-01 5.049893856048583984e-01 4.958459734916687012e-01
-3.592969477176666260e-01 5.863808393478393555e-01 3.386718332767486572e-01
3.003286719322204590e-01 -1.799005456268787384e-02 -3.056519031524658203e-01
-3.309878110885620117e-01 4.226542711257934570e-01 3.755635023117065430e-01
2.349117584526538849e-02 8.558768630027770996e-01 -4.163278043270111084e-01
-3.350563049316406250e-01 -4.705034494400024414e-01 -2.757338881492614746e-01
-3.598546683788299561e-01 4.238738417625427246e-01 3.379450440406799316e-01
-3.697555363178253174e-01 8.457086235284805298e-02 3.250425755977630615e-01
1.149401143193244934e-01 4.589608907699584961e-01 4.988133609294891357e-01
1.341290771961212158e-01 5.502687096595764160e-01 -3.980642855167388916e-01
-1.389346867799758911e-01 8.945034444332122803e-02 -3.958525359630584717e-01
3.739012181758880615e-01 8.090637326240539551e-01 3.203194737434387207e-01
2.682017982006072998e-01 1.457526385784149170e-01 -3.303063213825225830e-01
-4.066544473171234131e-01 -1.856456398963928223e-01 2.738606631755828857e-01
-1.626362353563308716e-01 8.224597573280334473e-01 -3.860352933406829834e-01
-2.160191535949707031e-01 2.299729287624359131e-01 4.584493637084960938e-01
4.128104448318481445e-01 6.748941540718078613e-01 2.602552771568298340e-01
2.981170117855072021e-01 -3.148685991764068604e-01 -3.073491454124450684e-01
5.443722009658813477e-03 7.671313881874084473e-01 5.132292509078979492e-01
1.840591430664062500e-01 -4.078921675682067871e-01 -3.773831129074096680e-01
-3.652360141277313232e-01 -4.731553792953491211e-01 3.309322595596313477e-01
9.646495431661605835e-02 -6.946903467178344727e-01 -4.002561569213867188e-01
-2.763823568820953369e-01 5.082020163536071777e-01 4.181489646434783936e-01
8.491198718547821045e-02 -2.587706744670867920e-01 -7.139319777488708496e-01
9.384236484766006470e-02 -8.293479681015014648e-02 -8.342339992523193359e-01
-3.282502293586730957e-01 -5.780558586120605469e-01 -2.838234603404998779e-01
-4.577619433403015137e-01 -6.335467696189880371e-01 1.127484589815139771e-01
1.210372596979141235e-01 -2.695882618427276611e-01 -4.034851789474487305e-01
2.593647316098213196e-02 -3.693651258945465088e-01 -4.463470280170440674e-01
-2.467728257179260254e-01 5.098101496696472168e-01 -3.463424146175384521e-01
-2.203472107648849487e-01 4.759396612644195557e-01 -3.621312081813812256e-01
-4.218513965606689453e-01 6.307967901229858398e-01 2.371693998575210571e-01
-3.250135183334350586e-01 4.282517731189727783e-01 -2.863070368766784668e-01
-4.127086102962493896e-01 -5.463332533836364746e-01 -1.647162586450576782e-01
7.069376111030578613e-02 3.596154451370239258e-01 -4.101132452487945557e-01
-3.922512531280517578e-01 1.624753326177597046e-01 -2.011990398168563843e-01
2.551039159297943115e-01 4.260002374649047852e-01 4.348836839199066162e-01
-3.152196407318115234e-01 4.790118709206581116e-02 -2.938220202922821045e-01
4.526472687721252441e-01 1.040476560592651367e-01 -6.105529516935348511e-02
-6.188923958688974380e-03 5.195739865303039551e-01 -4.185356795787811279e-01
-3.021157979965209961e-01 -2.546822428703308105e-01 -3.038768470287322998e-01
-1.125683858990669250e-01 3.188185393810272217e-01 -8.084661364555358887e-01
-9.003454446792602539e-02 2.712104618549346924e-01 5.020220875740051270e-01
-8.206018805503845215e-02 3.471392393112182617e-01 5.030720233917236328e-01
1.840492188930511475e-01 7.901533842086791992e-01 -3.773871958255767822e-01
-4.509171545505523682e-01 8.436375260353088379e-01 1.647456139326095581e-01
-4.655210077762603760e-01 4.009186625480651855e-01 5.380610004067420959e-02
4.272933602333068848e-01 3.586013019084930420e-01 -1.307628899812698364e-01
-3.614374697208404541e-01 6.526237130165100098e-01 3.358823955059051514e-01
-2.148553542792797089e-02 -4.507267475128173828e-02 -8.495830297470092773e-01
-3.638550639152526855e-01 -6.946903467178344727e-01 2.932160198688507080e-01
-4.641740024089813232e-01 6.563512086868286133e-01 3.048674575984477997e-02
3.780891746282577515e-02 5.901250839233398438e-01 -4.144427478313446045e-01
-2.117109298706054688e-01 -3.682948052883148193e-01 -3.657083809375762939e-01
-3.882048130035400391e-01 -4.850762430578470230e-03 3.009999990463256836e-01
-7.657376676797866821e-02 -6.946903467178344727e-01 -1.046064794063568115e-01
-3.297139406204223633e-01 -6.946903467178344727e-01 1.622926145792007446e-01
-4.661313295364379883e-01 8.286687135696411133e-01 4.535591602325439453e-02
1.394861787557601929e-01 -2.200284600257873535e-01 -3.958453834056854248e-01
3.476435542106628418e-01 5.041068792343139648e-01 -2.600110173225402832e-01
-4.409247934818267822e-01 7.398499846458435059e-01 -9.659273177385330200e-02
8.088321238756179810e-02 2.799695432186126709e-01 -8.239983320236206055e-01
4.574370980262756348e-01 8.149250149726867676e-01 -2.468982897698879242e-02
-3.538166582584381104e-01 7.318912446498870850e-02 -2.512859404087066650e-01
4.567339718341827393e-01 4.110497534275054932e-01 -3.002791479229927063e-02
3.242707252502441406e-01 4.177148640155792236e-01 3.818061947822570801e-01
-6.456080824136734009e-02 5.484210252761840820e-01 -4.448786377906799316e-01
4.539705216884613037e-01 6.342083215713500977e-01 -5.100877210497856140e-02
2.180337756872177124e-01 -2.128769755363464355e-01 -3.633106648921966553e-01
-3.882642984390258789e-01 -3.103227913379669189e-01 3.009224236011505127e-01
-1.453800797462463379e-01 -4.592448472976684570e-01 -3.931828141212463379e-01
-3.686979711055755615e-01 -6.761627197265625000e-01 -2.318930178880691528e-01
4.596262276172637939e-01 4.487469792366027832e-01 1.025948375463485718e-01
4.337806105613708496e-01 2.512684464454650879e-01 2.096275985240936279e-01
-3.223230689764022827e-02 -4.189673662185668945e-01 -4.151068627834320068e-01
-1.950350031256675720e-02 -3.724240660667419434e-01 -4.370382130146026611e-01
4.452802836894989014e-01 4.001864790916442871e-01 1.818642020225524902e-01
-2.592060863971710205e-01 8.319170475006103516e-01 -3.368021845817565918e-01
4.088888168334960938e-01 5.994340181350708008e-01 2.697231471538543701e-01
-4.572172462940216064e-01 -4.362460672855377197e-01 -2.236090600490570068e-02
4.318161904811859131e-01 8.739104866981506348e-02 -1.198438033461570740e-01
7.853461056947708130e-02 1.006665173918008804e-02 -4.090809524059295654e-01
1.362783014774322510e-01 7.644057273864746094e-01 -3.971740901470184326e-01
-4.078364968299865723e-01 6.193549633026123047e-01 -1.764792054891586304e-01
-4.423522353172302246e-01 9.774337708950042725e-02 1.876723319292068481e-01
-4.244215488433837891e-01 -6.583960056304931641e-01 2.309639304876327515e-01
-3.701076209545135498e-01 -5.496478080749511719e-01 3.245837092399597168e-01
-2.019809037446975708e-01 -4.894800484180450439e-01 -3.697385787963867188e-01
4.291655421257019043e-01 3.452627360820770264e-02 -1.262430697679519653e-01
4.516686797142028809e-01 4.138414263725280762e-01 -6.848485022783279419e-02
-4.121564626693725586e-01 -3.578357100486755371e-01 -1.660494059324264526e-01
1.667419970035552979e-01 5.893950462341308594e-01 4.790813922882080078e-01
1.876177964732050896e-03 -6.946903467178344727e-01 -2.875004410743713379e-01
-4.411471486091613770e-01 2.872433364391326904e-01 -9.605589509010314941e-02
-4.260817468166351318e-01 5.826930999755859375e-01 2.269556224346160889e-01
4.655906856060028076e-01 2.402617335319519043e-01 3.721431642770767212e-02
-4.351392686367034912e-01 -5.400840044021606445e-01 -1.105609759688377380e-01
-1.306238770484924316e-01 -6.946903467178344727e-01 -7.856512814760208130e-02
-4.572019875049591064e-01 2.236764729022979736e-01 1.170021444559097290e-01
3.466500639915466309e-01 5.508514046669006348e-01 -2.613057494163513184e-01
7.680918276309967041e-02 7.413305044174194336e-01 5.038335323333740234e-01
-9.921865910291671753e-02 -6.946903467178344727e-01 -2.710216641426086426e-01
-3.880693912506103516e-01 -5.665676593780517578e-01 -2.066487520933151245e-01
4.264242649078369141e-01 1.774547994136810303e-01 2.273878008127212524e-01
7.336355745792388916e-02 5.284834504127502441e-01 -4.097617566585540771e-01
2.605601847171783447e-01 -4.034416005015373230e-02 -3.361705541610717773e-01
1.019038930535316467e-01 4.645506441593170166e-01 -6.702238321304321289e-01
-4.441064596176147461e-01 -2.292093336582183838e-01 -8.891115337610244751e-02
-2.924514934420585632e-03 6.351518630981445312e-01 5.134909152984619141e-01
-1.687377244234085083e-01 3.319013714790344238e-01 4.780335128307342529e-01
-2.937859296798706055e-01 7.320710271596908569e-02 4.047952890396118164e-01
4.269478321075439453e-01 2.363790422677993774e-01 -1.315971463918685913e-01
-2.337724268436431885e-01 6.320762038230895996e-01 -3.563178181648254395e-01
3.464011549949645996e-01 -1.553376615047454834e-01 -2.616301774978637695e-01
3.276808261871337891e-01 3.735255897045135498e-01 -2.846616804599761963e-01
-4.064464196562767029e-02 8.363487720489501953e-01 -4.139992892742156982e-01
2.786517739295959473e-01 6.567375063896179199e-01 4.168133735656738281e-01
-1.873726695775985718e-01 1.336171478033065796e-01 4.703148007392883301e-01
-2.851453423500061035e-01 1.299580931663513184e-01 -3.168985247611999512e-01
1.978549174964427948e-02 5.538612604141235352e-02 -4.168156981468200684e-01
1.784394532442092896e-01 1.708452999591827393e-01 -3.797107636928558350e-01
-2.015727199614048004e-02 3.256039619445800781e-01 -4.166966676712036133e-01
3.586107492446899414e-02 -1.728800535202026367e-01 -7.876014113426208496e-01
-1.009450629353523254e-01 -4.955004453659057617e-01 -4.060601592063903809e-01
-2.806394696235656738e-01 -1.273764818906784058e-01 4.148825109004974365e-01
2.738312184810638428e-01 -6.946903467178344727e-01 -3.002407252788543701e-01
1.895315051078796387e-01 2.614000141620635986e-01 4.696418642997741699e-01
-2.483789324760437012e-01 -1.833162158727645874e-01 -3.451099991798400879e-01
-4.532256722450256348e-01 7.860783934593200684e-01 -5.268319323658943176e-02
3.074147403240203857e-01 2.815965712070465088e-01 -3.002139925956726074e-01
-3.163462877273559570e-01 -8.588105440139770508e-03 -2.929575741291046143e-01
4.081094264984130859e-01 7.506074905395507812e-01 2.716047763824462891e-01
3.581250607967376709e-01 -2.299008369445800781e-01 -2.463513612747192383e-01
4.933235421776771545e-02 2.262803167104721069e-01 -4.129256010055541992e-01
-1.890732347965240479e-01 5.520668029785156250e-01 -3.750849664211273193e-01
2.122018337249755859e-01 5.600636005401611328e-01 -3.657262623310089111e-01
4.661641120910644531e-01 5.428794622421264648e-01 4.156775772571563721e-02
-5.233830586075782776e-02 -3.213592171669006348e-01 -6.262713670730590820e-01
-2.609533071517944336e-01 -9.939724206924438477e-02 -3.354614675045013428e-01
1.190649569034576416e-01 1.886306107044219971e-01 -4.037448167800903320e-01
-3.869239091873168945e-01 7.997512817382812500e-01 3.026692271232604980e-01
-3.626316487789154053e-01 7.761632800102233887e-01 3.343261778354644775e-01
-4.584896266460418701e-01 6.170004010200500488e-01 -1.269496232271194458e-02
-3.910742998123168945e-01 -6.954269111156463623e-02 2.972605228424072266e-01
-1.036743819713592529e-01 8.608032464981079102e-01 4.838927388191223145e-01
2.069465257227420807e-02 4.154951870441436768e-01 -7.342967987060546875e-01
-1.792320758104324341e-01 4.188189804553985596e-01 4.736866652965545654e-01
3.426119089126586914e-01 -1.960580348968505859e-01 -2.665683329105377197e-01
-7.735332101583480835e-02 2.592692673206329346e-01 -8.330298066139221191e-01
-4.190146923065185547e-01 4.156199097633361816e-01 -1.494912952184677124e-01
-3.714373707771301270e-01 -3.439885377883911133e-01 3.228507936000823975e-01
-4.641048014163970947e-01 1.826699078083038330e-01 2.996093407273292542e-02
1.404455155134201050e-01 6.200995445251464844e-01 -3.954479694366455078e-01
-1.064730733633041382e-01 6.990373730659484863e-01 -4.053323566913604736e-01
-3.647063970565795898e-01 -2.113083451986312866e-01 3.316224217414855957e-01
4.591267704963684082e-01 6.698629856109619141e-01 -1.186143234372138977e-02
-8.279594033956527710e-02 -6.946903467178344727e-01 -2.283607870340347290e-01
-1.678110212087631226e-01 3.749817609786987305e-01 4.784173667430877686e-01
-1.557048708200454712e-01 2.120097577571868896e-01 4.834317862987518311e-01
8.381641656160354614e-02 5.220670700073242188e-01 -5.601562261581420898e-01
-4.601826071739196777e-01 9.187068790197372437e-02 1.658015535213053226e-04
1.013718098402023315e-01 5.436194539070129395e-01 5.005997419357299805e-01
2.429829537868499756e-01 3.135550916194915771e-01 4.441851079463958740e-01
1.611036658287048340e-01 8.608032464981079102e-01 -3.654637038707733154e-01
-2.632198929786682129e-01 -2.188716381788253784e-01 4.282484352588653564e-01
-3.028846383094787598e-01 2.840247154235839844e-01 3.978139758110046387e-01
-2.133889943361282349e-01 -6.946903467178344727e-01 -1.423255503177642822e-01
-2.487162053585052490e-01 4.807329177856445312e-01 4.393770098686218262e-01
4.033801555633544922e-01 6.873752474784851074e-01 -1.873744577169418335e-01
-8.666209131479263306e-02 4.396320581436157227e-01 -7.044094204902648926e-01
6.187152490019798279e-02 3.604153394699096680e-01 5.058001875877380371e-01
-4.126141369342803955e-01 2.067758589982986450e-01 -1.649443656206130981e-01
1.242172867059707642e-01 -3.378562927246093750e-01 -4.021697938442230225e-01
-3.458201885223388672e-01 -3.019140660762786865e-01 -2.617067098617553711e-01
-1.121087279170751572e-02 -3.700742498040199280e-03 -4.178745150566101074e-01
-4.043162465095520020e-01 5.112442374229431152e-01 2.795060873031616211e-01
1.108366176486015320e-01 4.025389850139617920e-01 4.993536174297332764e-01
-1.148608624935150146e-01 -6.946903467178344727e-01 -3.398417830467224121e-01
1.066236197948455811e-01 1.570726633071899414e-01 4.999082982540130615e-01
-1.178953200578689575e-01 2.071784883737564087e-01 4.983539581298828125e-01
-1.045211553573608398e-01 7.766916155815124512e-01 -4.055893421173095703e-01
-4.615811705589294434e-01 5.299850702285766602e-01 1.079014036804437637e-02
2.336174547672271729e-01 -3.587844371795654297e-01 -3.568465709686279297e-01
-3.660156130790710449e-01 2.182222008705139160e-01 3.299162983894348145e-01
-2.529651820659637451e-01 6.476023048162460327e-02 -3.415909111499786377e-01
-1.193970292806625366e-01 3.083958923816680908e-01 -4.036307930946350098e-01
-3.114473819732666016e-01 -6.946903467178344727e-01 -2.517733871936798096e-01
8.788943290710449219e-02 7.395440340042114258e-01 -4.078493118286132812e-01
4.491827785968780518e-01 4.643749892711639404e-01 -7.791692763566970825e-02
-4.643490016460418701e-01 2.565432488918304443e-01 3.181623667478561401e-02
-2.372354716062545776e-01 -3.732638061046600342e-02 4.481860995292663574e-01
3.194130063056945801e-01 3.758639991283416748e-01 3.855338990688323975e-01
-5.513842776417732239e-02 -4.864302575588226318e-01 -4.120910465717315674e-01
-6.275266408920288086e-02 -3.606126308441162109e-01 -5.271265506744384766e-01
-4.630174040794372559e-01 -3.271515369415283203e-01 7.282499969005584717e-02
4.437619149684906006e-01 2.089602798223495483e-01 -9.100422263145446777e-02
3.223177194595336914e-01 1.966855227947235107e-01 -2.887773513793945312e-01
-4.360456466674804688e-01 -6.008424162864685059e-01 -1.083726808428764343e-01
3.733176290988922119e-01 4.872241616249084473e-01 3.210799992084503174e-01
2.521379888057708740e-01 7.052494883537292480e-01 -3.426337838172912598e-01
-3.447581231594085693e-01 2.610722780227661133e-01 -2.630907297134399414e-01
-4.434128757566213608e-03 2.583334147930145264e-01 -8.332066535949707031e-01
-3.518956601619720459e-01 -4.939641952514648438e-01 -2.537893056869506836e-01
-2.360779196023941040e-01 1.913180649280548096e-01 4.490743279457092285e-01
-3.049021065235137939e-01 2.309485077857971191e-01 3.962659537792205811e-01
-4.624814093112945557e-01 3.731344640254974365e-01 7.689659297466278076e-02
2.465609610080718994e-01 8.292322047054767609e-03 -3.469136357307434082e-01
-4.569982588291168213e-01 5.622760057449340820e-01 1.185499653220176697e-01
4.881442058831453323e-03 1.510352492332458496e-01 -4.187779128551483154e-01
-4.045106768608093262e-01 -6.946903467178344727e-01 4.590702056884765625e-02
4.510537981986999512e-01 2.166627645492553711e-01 1.676784604787826538e-01
4.412325620651245117e-01 6.416314244270324707e-01 1.916364729404449463e-01
-4.591867029666900635e-01 2.550697028636932373e-01 -7.399716880172491074e-03
-1.178934331983327866e-02 -7.434669137001037598e-02 -4.177983701229095459e-01
5.864614993333816528e-02 -2.806473076343536377e-01 -6.851852536201477051e-01
3.798114955425262451e-01 8.076383471488952637e-01 -2.180893570184707642e-01
1.098828911781311035e-01 -3.455598056316375732e-01 -5.705783367156982422e-01
1.777498722076416016e-01 -5.695877671241760254e-01 -3.799964189529418945e-01
-2.894649803638458252e-01 -6.946903467178344727e-01 -1.688993871212005615e-01
4.598606824874877930e-01 7.504767179489135742e-01 1.008147597312927246e-01
4.449028372764587402e-01 7.206765413284301758e-01 1.827754378318786621e-01
-3.185780644416809082e-01 -1.173160150647163391e-01 -2.912450432777404785e-01
8.297411352396011353e-02 6.938616633415222168e-01 5.030218958854675293e-01
4.558453559875488281e-01 5.008045434951782227e-01 -3.677476197481155396e-02
-2.005378156900405884e-02 9.564544260501861572e-02 -4.167102873325347900e-01
-4.325875341892242432e-01 6.407361030578613281e-01 -1.167217791080474854e-01
-3.439126610755920410e-01 8.325564861297607422e-01 3.587202429771423340e-01
-3.733349740505218506e-01 2.454583346843719482e-01 -2.258501946926116943e-01
-6.380402296781539917e-02 3.677690923213958740e-01 -4.109501242637634277e-01
-7.635363191366195679e-02 5.063597112894058228e-02 -4.092978537082672119e-01
-2.925863564014434814e-01 -6.946903467178344727e-01 -4.950212780386209488e-03
-3.307636976242065430e-01 1.535781919956207275e-01 3.758556246757507324e-01
4.260362088680267334e-01 3.475214540958404541e-01 2.283246368169784546e-01
-2.016043514013290405e-01 -6.946903467178344727e-01 -3.336493074893951416e-01
3.567817434668540955e-02 3.843849599361419678e-01 -7.580892443656921387e-01
-1.228762939572334290e-01 -5.744434893131256104e-02 4.970294535160064697e-01
-3.219673037528991699e-01 -6.791663765907287598e-01 -2.886444032192230225e-01
-4.108253493905067444e-02 4.510714113712310791e-01 -4.139416515827178955e-01
4.554344117641448975e-01 8.529329299926757812e-01 -3.989449143409729004e-02
3.505558371543884277e-01 6.644325256347656250e-01 -2.562156915664672852e-01
-8.167038857936859131e-02 -5.530127882957458496e-01 -4.085978567600250244e-01
-9.075710922479629517e-02 -6.946903467178344727e-01 -2.471339143812656403e-02
-7.175537943840026855e-02 -3.687922358512878418e-01 -4.870291650295257568e-01
3.327574953436851501e-02 7.131622731685638428e-02 -8.681312799453735352e-01
1.974826008081436157e-01 1.766332834959030151e-01 4.663484990596771240e-01
4.081909954547882080e-01 -9.715446084737777710e-02 -1.768803298473358154e-01
2.097175270318984985e-02 -6.946903467178344727e-01 -2.244239300489425659e-01
9.731106460094451904e-02 8.464986085891723633e-01 -4.066089093685150146e-01
-1.636899262666702271e-01 -4.196432232856750488e-01 -3.855988383293151855e-01
-1.245355233550071716e-02 6.800858378410339355e-01 5.122363567352294922e-01
3.488907814025878906e-01 4.561734795570373535e-01 -2.583856284618377686e-01
-3.997704982757568359e-01 3.921559453010559082e-01 2.859279513359069824e-01
2.785910964012145996e-01 7.416605949401855469e-01 4.168599545955657959e-01
-8.250006288290023804e-02 1.238752231001853943e-01 -8.653258681297302246e-01
3.240713849663734436e-02 -8.501898497343063354e-02 -8.331930637359619141e-01
-2.712091207504272461e-01 6.385072469711303711e-01 -3.275920152664184570e-01
-3.528383374214172363e-01 3.699112236499786377e-01 -2.525608241558074951e-01
3.744621872901916504e-01 6.278147101402282715e-01 3.195883631706237793e-01
-2.470080852508544922e-01 3.432807326316833496e-01 -3.461619019508361816e-01
4.572692513465881348e-02 6.798813343048095703e-01 -4.134003221988677979e-01
-4.409084022045135498e-01 7.311676740646362305e-01 1.911582648754119873e-01
4.521893858909606934e-01 7.775462865829467773e-01 1.590568870306015015e-01
-2.978667318820953369e-01 1.828555017709732056e-02 -3.071371614933013916e-01
-2.295187115669250488e-01 -5.088706612586975098e-01 -3.583323359489440918e-01
-1.717523038387298584e-01 8.792167156934738159e-02 -3.822593986988067627e-01
1.079868301749229431e-01 -1.918086707592010498e-01 -7.734631299972534180e-01
4.388635754585266113e-01 3.318554759025573730e-01 1.973558664321899414e-01
-6.712400168180465698e-02 -3.338365256786346436e-01 -5.958959460258483887e-01
3.133548498153686523e-01 7.764601707458496094e-01 3.901828527450561523e-01
3.334308564662933350e-01 5.792283415794372559e-01 -2.785331904888153076e-01
-2.645886503159999847e-02 5.583051592111587524e-02 5.103924274444580078e-01
3.073238432407379150e-01 5.012259483337402344e-01 -3.002837598323822021e-01
-4.546009004116058350e-01 8.393260836601257324e-01 -4.223623499274253845e-02
7.810940593481063843e-02 5.944245457649230957e-01 -4.091368913650512695e-01
3.239109516143798828e-01 7.219741940498352051e-01 -2.875546813011169434e-01
-4.620500504970550537e-01 -5.532802939414978027e-01 8.017341047525405884e-02
3.685263097286224365e-01 9.275455772876739502e-02 -2.327963709831237793e-01
-4.530586302280426025e-01 2.079631239175796509e-01 1.484776437282562256e-01
-7.311479747295379639e-02 1.421830952167510986e-01 5.042496919631958008e-01
-6.602913886308670044e-02 4.064730107784271240e-01 -7.416839003562927246e-01
-1.486264914274215698e-02 3.683726787567138672e-01 5.119192004203796387e-01
1.976865082979202271e-01 7.100103497505187988e-01 -3.717385828495025635e-01
3.118489384651184082e-01 6.835185885429382324e-01 3.913384675979614258e-01
-5.402275919914245605e-02 5.404513478279113770e-01 -5.048706531524658203e-01
1.207878068089485168e-02 4.929128587245941162e-01 5.123557448387145996e-01
-5.393661931157112122e-02 5.025487542152404785e-01 -6.096002459526062012e-01
8.910038322210311890e-02 4.460900723934173584e-01 -4.076898694038391113e-01
-2.259853482246398926e-01 -6.946903467178344727e-01 1.196555793285369873e-01
