-3.936765789985656738e-01 -9.165354073047637939e-03 3.011035323143005371e-01
-3.984259366989135742e-01 2.071402221918106079e-02 2.889998257160186768e-01
-4.017937779426574707e-01 4.623308032751083374e-02 2.813477814197540283e-01
-4.049353301525115967e-01 7.960423827171325684e-02 2.731876075267791748e-01
-4.080389440059661865e-01 1.161350384354591370e-01 2.673125863075256348e-01
-4.104335606098175049e-01 1.558043062686920166e-01 2.637932598590850830e-01
-4.136372804641723633e-01 1.947637200355529785e-01 2.621372044086456299e-01
-4.138215780258178711e-01 2.252283096313476562e-01 2.635916471481323242e-01
-4.050896465778350830e-01 -2.672337368130683899e-02 2.780570387840270996e-01
-4.088916480541229248e-01 5.514064803719520569e-03 2.678748369216918945e-01
-4.125742614269256592e-01 3.184288367629051208e-02 2.608565986156463623e-01
-4.165765941143035889e-01 6.248110905289649963e-02 2.540257275104522705e-01
-4.196560382843017578e-01 9.723953157663345337e-02 2.486794739961624146e-01
-4.235401153564453125e-01 1.363309323787689209e-01 2.421824485063552856e-01
-4.269447028636932373e-01 1.792977750301361084e-01 2.370195835828781128e-01
-4.282130599021911621e-01 2.185895442962646484e-01 2.380996942520141602e-01
-4.139446318149566650e-01 -4.609064012765884399e-02 2.600395977497100830e-01
-4.181741476058959961e-01 -9.766310453414916992e-03 2.521941363811492920e-01
-4.226696789264678955e-01 1.881855726242065430e-02 2.447479814291000366e-01
-4.272357225418090820e-01 4.654392972588539124e-02 2.369646281003952026e-01
-4.307123422622680664e-01 7.836578786373138428e-02 2.309001535177230835e-01
-4.345830380916595459e-01 1.144042983651161194e-01 2.244921475648880005e-01
-4.366374015808105469e-01 1.573590934276580811e-01 2.201306968927383423e-01
-4.370329082012176514e-01 2.044364809989929199e-01 2.162558734416961670e-01
-4.224708378314971924e-01 -6.563141196966171265e-02 2.444419413805007935e-01
-4.273269176483154297e-01 -2.692849189043045044e-02 2.358978539705276489e-01
-4.324890971183776855e-01 4.101829603314399719e-03 2.270960509777069092e-01
-4.370891451835632324e-01 3.363054990768432617e-02 2.193062752485275269e-01
-4.389299750328063965e-01 6.027219817042350769e-02 2.157188057899475098e-01
-4.409509897232055664e-01 9.354113787412643433e-02 2.107028514146804810e-01
-4.429500699043273926e-01 1.343844532966613770e-01 2.062890231609344482e-01
-4.450508952140808105e-01 1.856887042522430420e-01 1.978047341108322144e-01
-4.309977293014526367e-01 -8.144853264093399048e-02 2.278581857681274414e-01
-4.357106983661651611e-01 -4.508379101753234863e-02 2.204582691192626953e-01
-4.393742084503173828e-01 -1.059134304523468018e-02 2.139532566070556641e-01
-4.418615996837615967e-01 1.938086003065109253e-02 2.092003822326660156e-01
-4.435734748840332031e-01 4.664637148380279541e-02 2.049344331026077271e-01
-4.450286030769348145e-01 7.569894194602966309e-02 2.006686627864837646e-01
-4.474852085113525391e-01 1.137978658080101013e-01 1.929314881563186646e-01
-4.512337744235992432e-01 1.643480658531188965e-01 1.821245700120925903e-01
-4.379470646381378174e-01 -9.441835433244705200e-02 2.122782766819000244e-01
-4.412031173706054688e-01 -6.212136149406433105e-02 2.087339460849761963e-01
-4.438339471817016602e-01 -2.558493614196777344e-02 2.039440572261810303e-01
-4.455992281436920166e-01 7.954426109790802002e-03 1.987214982509613037e-01
-4.474838078022003174e-01 3.517432138323783875e-02 1.921194791793823242e-01
-4.493480026721954346e-01 6.431382894515991211e-02 1.867111474275588989e-01
-4.519886672496795654e-01 9.669255465269088745e-02 1.795762479305267334e-01
-4.564570188522338867e-01 1.436220705509185791e-01 1.634057015180587769e-01
-4.434982240200042725e-01 -1.044530197978019714e-01 1.945659369230270386e-01
-4.465653300285339355e-01 -7.301313430070877075e-02 1.900711804628372192e-01
-4.489444494247436523e-01 -4.200813919305801392e-02 1.872486323118209839e-01
-4.506304264068603516e-01 -6.678886711597442627e-03 1.825512647628784180e-01
-4.527894556522369385e-01 2.474804222583770752e-02 1.764782965183258057e-01
-4.553911387920379639e-01 5.409209430217742920e-02 1.696361601352691650e-01
-4.575644731521606445e-01 8.409152925014495850e-02 1.587774157524108887e-01
-4.618497192859649658e-01 1.253668665885925293e-01 1.419945508241653442e-01
-4.521717429161071777e-01 -1.119847819209098816e-01 1.704304665327072144e-01
-4.541846215724945068e-01 -7.835295051336288452e-02 1.658469289541244507e-01
-4.566717743873596191e-01 -5.152127146720886230e-02 1.595411747694015503e-01
-4.589371085166931152e-01 -2.414366602897644043e-02 1.555883288383483887e-01
-4.607288837432861328e-01 1.160147599875926971e-02 1.477851569652557373e-01
-4.622842669486999512e-01 4.482633620500564575e-02 1.399077773094177246e-01
-4.637029170989990234e-01 7.362937927246093750e-02 1.321210265159606934e-01
-4.655891358852386475e-01 1.098400875926017761e-01 1.238382384181022644e-01
4.521310329437255859e-04 -2.236192375421524048e-01 -4.182454049587249756e-01
-1.621549576520919800e-02 -1.890538036823272705e-01 -4.187698066234588623e-01
-3.610098734498023987e-02 -1.550049185752868652e-01 -4.197076261043548584e-01
-5.298686772584915161e-02 -1.258113533258438110e-01 -4.198731482028961182e-01
-6.785654276609420776e-02 -9.662108123302459717e-02 -4.194400906562805176e-01
-8.016015589237213135e-02 -7.114021480083465576e-02 -4.174492955207824707e-01
-9.679570794105529785e-02 -4.255007207393646240e-02 -4.134834110736846924e-01
-1.211832016706466675e-01 -4.892900586128234863e-03 -4.084648787975311279e-01
-1.796299219131469727e-02 -2.471543550491333008e-01 -4.180503487586975098e-01
-3.957998380064964294e-02 -2.082645893096923828e-01 -4.176997542381286621e-01
-5.725269392132759094e-02 -1.779090017080307007e-01 -4.172234535217285156e-01
-7.167693227529525757e-02 -1.517008394002914429e-01 -4.165707528591156006e-01
-8.799261599779129028e-02 -1.223673820495605469e-01 -4.142740368843078613e-01
-1.010591015219688416e-01 -9.441097080707550049e-02 -4.110436737537384033e-01
-1.210795193910598755e-01 -6.571993231773376465e-02 -4.063235223293304443e-01
-1.424820125102996826e-01 -2.510431408882141113e-02 -4.023954272270202637e-01
-3.547126054763793945e-02 -2.714110910892486572e-01 -4.179229438304901123e-01
-5.514542758464813232e-02 -2.392416745424270630e-01 -4.166089892387390137e-01
-7.438461482524871826e-02 -2.045503407716751099e-01 -4.144207835197448730e-01
-9.184420108795166016e-02 -1.778758168220520020e-01 -4.114942848682403564e-01
-1.053019613027572632e-01 -1.496889591217041016e-01 -4.083975553512573242e-01
-1.214951872825622559e-01 -1.186030656099319458e-01 -4.052795469760894775e-01
-1.384178996086120605e-01 -8.694076538085937500e-02 -4.013976156711578369e-01
-1.554847508668899536e-01 -4.628577828407287598e-02 -3.981431722640991211e-01
-5.079855024814605713e-02 -2.959680259227752686e-01 -4.172123968601226807e-01
-7.130542397499084473e-02 -2.654099464416503906e-01 -4.150384366512298584e-01
-9.099020808935165405e-02 -2.337750196456909180e-01 -4.100413024425506592e-01
-1.061915680766105652e-01 -1.998685896396636963e-01 -4.064967036247253418e-01
-1.184090524911880493e-01 -1.747504025697708130e-01 -4.037942290306091309e-01
-1.340010762214660645e-01 -1.468257158994674683e-01 -4.000082015991210938e-01
-1.478158086538314819e-01 -1.125867962837219238e-01 -3.979710638523101807e-01
-1.641741394996643066e-01 -6.772156059741973877e-02 -3.940326869487762451e-01
-6.766994297504425049e-02 -3.182469308376312256e-01 -4.146678745746612549e-01
-8.833126723766326904e-02 -2.894284725189208984e-01 -4.116747677326202393e-01
-1.060103476047515869e-01 -2.598816454410552979e-01 -4.062441587448120117e-01
-1.162292212247848511e-01 -2.292975634336471558e-01 -4.023807048797607422e-01
-1.299286037683486938e-01 -1.983808428049087524e-01 -3.988824486732482910e-01
-1.441681534051895142e-01 -1.715335100889205933e-01 -3.957770466804504395e-01
-1.566061973571777344e-01 -1.384600996971130371e-01 -3.932960033416748047e-01
-1.701852381229400635e-01 -9.519523382186889648e-02 -3.897209167480468750e-01
-8.793054521083831787e-02 -3.351374864578247070e-01 -4.115733802318572998e-01
-1.070249080657958984e-01 -3.127333819866180420e-01 -4.063143730163574219e-01
-1.195655912160873413e-01 -2.859477698802947998e-01 -4.015600681304931641e-01
-1.316857933998107910e-01 -2.560692131519317627e-01 -3.972328007221221924e-01
-1.438375711441040039e-01 -2.278001904487609863e-01 -3.933779597282409668e-01
-1.536315977573394775e-01 -1.978830099105834961e-01 -3.910339772701263428e-01
-1.658392101526260376e-01 -1.627897471189498901e-01 -3.882642090320587158e-01
-1.770574897527694702e-01 -1.215404719114303589e-01 -3.849150538444519043e-01
-1.160608083009719849e-01 -3.509559929370880127e-01 -3.994109928607940674e-01
-1.331660300493240356e-01 -3.282297253608703613e-01 -3.943856656551361084e-01
-1.468622982501983643e-01 -3.050677180290222168e-01 -3.888945877552032471e-01
-1.572816967964172363e-01 -2.792040407657623291e-01 -3.850664496421813965e-01
-1.650907844305038452e-01 -2.513401806354522705e-01 -3.830587863922119141e-01
-1.725850999355316162e-01 -2.202527821063995361e-01 -3.814700245857238770e-01
-1.793423891067504883e-01 -1.879474371671676636e-01 -3.803026676177978516e-01
-1.888108551502227783e-01 -1.489522904157638550e-01 -3.769401013851165771e-01
-1.532178968191146851e-01 -3.587570786476135254e-01 -3.828630447387695312e-01
-1.638085097074508667e-01 -3.377401530742645264e-01 -3.799403011798858643e-01
-1.749763041734695435e-01 -3.198720812797546387e-01 -3.761555254459381104e-01
-1.834551244974136353e-01 -2.920662462711334229e-01 -3.744353055953979492e-01
-1.873399317264556885e-01 -2.670165002346038818e-01 -3.733881115913391113e-01
-1.931600421667098999e-01 -2.368958294391632080e-01 -3.708121180534362793e-01
-1.990233510732650757e-01 -2.081350386142730713e-01 -3.694286942481994629e-01
-2.085084766149520874e-01 -1.743522435426712036e-01 -3.669307529926300049e-01
3.673279881477355957e-01 3.201792836189270020e-01 -2.435542643070220947e-01
3.644903302192687988e-01 3.521810770034790039e-01 -2.460555881261825562e-01
3.602617979049682617e-01 3.847935795783996582e-01 -2.507266402244567871e-01
3.549929559230804443e-01 4.152140021324157715e-01 -2.574943900108337402e-01
3.485910594463348389e-01 4.423773884773254395e-01 -2.638654410839080811e-01
3.439613580703735352e-01 4.703179299831390381e-01 -2.670383751392364502e-01
3.341358304023742676e-01 5.027958750724792480e-01 -2.744047343730926514e-01
3.218098282814025879e-01 5.303622484207153320e-01 -2.793944478034973145e-01
3.520097136497497559e-01 3.033178150653839111e-01 -2.591485381126403809e-01
3.488987684249877930e-01 3.389838933944702148e-01 -2.647965550422668457e-01
3.439880311489105225e-01 3.717693686485290527e-01 -2.714598774909973145e-01
3.358201384544372559e-01 4.043390750885009766e-01 -2.782119512557983398e-01
3.272370696067810059e-01 4.331421852111816406e-01 -2.848914265632629395e-01
3.196620941162109375e-01 4.599390923976898193e-01 -2.915351092815399170e-01
3.073613941669464111e-01 4.988232851028442383e-01 -3.028461337089538574e-01
2.944193780422210693e-01 5.415909886360168457e-01 -3.137893676757812500e-01
3.400072753429412842e-01 2.920210361480712891e-01 -2.765215039253234863e-01
3.321322798728942871e-01 3.284861743450164795e-01 -2.815726399421691895e-01
3.234817683696746826e-01 3.649990260601043701e-01 -2.890195846557617188e-01
3.147350251674652100e-01 3.963897526264190674e-01 -2.984347641468048096e-01
3.078138232231140137e-01 4.240810871124267578e-01 -3.073862493038177490e-01
3.007616996765136719e-01 4.503256678581237793e-01 -3.141022026538848877e-01
2.858299016952514648e-01 4.925262331962585449e-01 -3.253487646579742432e-01
2.663878798484802246e-01 5.350214242935180664e-01 -3.384366035461425781e-01
3.248816132545471191e-01 2.757577896118164062e-01 -2.904683649539947510e-01
3.138982951641082764e-01 3.146869540214538574e-01 -2.984071969985961914e-01
3.052020967006683350e-01 3.569184839725494385e-01 -3.082771301269531250e-01
2.973043322563171387e-01 3.857748508453369141e-01 -3.163317441940307617e-01
2.897196412086486816e-01 4.128510355949401855e-01 -3.235145807266235352e-01
2.813278734683990479e-01 4.395808279514312744e-01 -3.308070302009582520e-01
2.642841935157775879e-01 4.810556471347808838e-01 -3.407032489776611328e-01
2.393109649419784546e-01 5.252172946929931641e-01 -3.538985252380371094e-01
3.107887804508209229e-01 2.594231963157653809e-01 -3.034891784191131592e-01
2.962302267551422119e-01 2.997925877571105957e-01 -3.173259496688842773e-01
2.856697440147399902e-01 3.363014459609985352e-01 -3.257747590541839600e-01
2.772502899169921875e-01 3.742352724075317383e-01 -3.331213295459747314e-01
2.689650952816009521e-01 4.009667336940765381e-01 -3.399403095245361328e-01
2.581067085266113281e-01 4.269437491893768311e-01 -3.458274006843566895e-01
2.383515834808349609e-01 4.668827652931213379e-01 -3.563174903392791748e-01
2.133861035108566284e-01 5.110729336738586426e-01 -3.685357272624969482e-01
2.887477874755859375e-01 2.457476258277893066e-01 -3.223004043102264404e-01
2.746306061744689941e-01 2.838627994060516357e-01 -3.341972529888153076e-01
2.641767561435699463e-01 3.175034224987030029e-01 -3.428250253200531006e-01
2.536806464195251465e-01 3.564613163471221924e-01 -3.486220240592956543e-01
2.429829686880111694e-01 3.891370892524719238e-01 -3.540014326572418213e-01
2.297232151031494141e-01 4.151343703269958496e-01 -3.613383471965789795e-01
2.126684337854385376e-01 4.497703313827514648e-01 -3.693118691444396973e-01
1.894555985927581787e-01 4.955258965492248535e-01 -3.805104494094848633e-01
2.675214707851409912e-01 2.317436486482620239e-01 -3.429917693138122559e-01
2.512253224849700928e-01 2.725176811218261719e-01 -3.521688580513000488e-01
2.387144863605499268e-01 3.044665455818176270e-01 -3.590301871299743652e-01
2.280925661325454712e-01 3.362373411655426025e-01 -3.637755811214447021e-01
2.167058736085891724e-01 3.723599910736083984e-01 -3.679080009460449219e-01
2.072165906429290771e-01 4.029827117919921875e-01 -3.724740743637084961e-01
1.904141157865524292e-01 4.331982135772705078e-01 -3.805437684059143066e-01
1.667111515998840332e-01 4.774602055549621582e-01 -3.915844559669494629e-01
2.355245947837829590e-01 2.277809828519821167e-01 -3.603532612323760986e-01
2.232303172349929810e-01 2.635484337806701660e-01 -3.656333684921264648e-01
2.124329358339309692e-01 2.958929538726806641e-01 -3.692958950996398926e-01
2.034296542406082153e-01 3.240867257118225098e-01 -3.730753362178802490e-01
1.949272751808166504e-01 3.515692651271820068e-01 -3.773670196533203125e-01
1.831478327512741089e-01 3.841580450534820557e-01 -3.845903575420379639e-01
1.673789173364639282e-01 4.167308807373046875e-01 -3.932904005050659180e-01
1.388900578022003174e-01 4.623069167137145996e-01 -4.056590795516967773e-01
6.910117715597152710e-02 -6.973783969879150391e-01 -2.088090330362319946e-01
3.484714776277542114e-02 -6.975144147872924805e-01 -1.774760335683822632e-01
5.175881087779998779e-03 -6.967968940734863281e-01 -1.517387479543685913e-01
-2.216921746730804443e-02 -6.960648894309997559e-01 -1.263215839862823486e-01
-5.120892077684402466e-02 -6.961966156959533691e-01 -1.001186221837997437e-01
-7.674622535705566406e-02 -6.964914202690124512e-01 -6.909896433353424072e-02
-1.016574651002883911e-01 -6.978271007537841797e-01 -3.219217061996459961e-02
-1.346258372068405151e-01 -6.983214616775512695e-01 1.300475001335144043e-02
2.533096820116043091e-02 -6.970769762992858887e-01 -2.269878536462783813e-01
-4.443146288394927979e-03 -6.976093053817749023e-01 -1.967657208442687988e-01
-3.128844872117042542e-02 -6.974747776985168457e-01 -1.721536964178085327e-01
-5.631954967975616455e-02 -6.971475481986999512e-01 -1.483940631151199341e-01
-8.396723866462707520e-02 -6.964771151542663574e-01 -1.225724369287490845e-01
-1.080548688769340515e-01 -6.961057186126708984e-01 -9.418328106403350830e-02
-1.349245160818099976e-01 -6.969274282455444336e-01 -5.912531912326812744e-02
-1.664514243602752686e-01 -6.977227330207824707e-01 -2.331960201263427734e-02
-1.390758901834487915e-02 -6.969378590583801270e-01 -2.422865033149719238e-01
-4.270698130130767822e-02 -6.974202990531921387e-01 -2.152862399816513062e-01
-6.689745187759399414e-02 -6.976887583732604980e-01 -1.911825537681579590e-01
-9.001007676124572754e-02 -6.978914737701416016e-01 -1.685083210468292236e-01
-1.145374849438667297e-01 -6.975482702255249023e-01 -1.418079584836959839e-01
-1.392997354269027710e-01 -6.966824531555175781e-01 -1.169788688421249390e-01
-1.624764204025268555e-01 -6.960246562957763672e-01 -8.990319073200225830e-02
-1.920302808284759521e-01 -6.967908143997192383e-01 -5.227500200271606445e-02
-4.627488180994987488e-02 -6.970248222351074219e-01 -2.615666687488555908e-01
-7.479894161224365234e-02 -6.976264119148254395e-01 -2.329640388488769531e-01
-9.504939615726470947e-02 -6.979869604110717773e-01 -2.109732627868652344e-01
-1.174716204404830933e-01 -6.982688903808593750e-01 -1.882051825523376465e-01
-1.397584080696105957e-01 -6.983413100242614746e-01 -1.648882180452346802e-01
-1.604810953140258789e-01 -6.972161531448364258e-01 -1.416635960340499878e-01
-1.821302473545074463e-01 -6.959874629974365234e-01 -1.189232170581817627e-01
-2.112793922424316406e-01 -6.955230832099914551e-01 -8.458064496517181396e-02
-7.654339075088500977e-02 -6.971569061279296875e-01 -2.829525768756866455e-01
-9.800076484680175781e-02 -6.975337266921997070e-01 -2.527691125869750977e-01
-1.179173588752746582e-01 -6.980686187744140625e-01 -2.288668304681777954e-01
-1.392421424388885498e-01 -6.985670328140258789e-01 -2.126775681972503662e-01
-1.597360372543334961e-01 -6.989375948905944824e-01 -1.881690323352813721e-01
-1.803319454193115234e-01 -6.980558633804321289e-01 -1.668709814548492432e-01
-2.029100060462951660e-01 -6.964871287345886230e-01 -1.435915976762771606e-01
-2.303837537765502930e-01 -6.948040723800659180e-01 -1.178743690252304077e-01
-1.017992123961448669e-01 -6.973128914833068848e-01 -3.026400506496429443e-01
-1.206402033567428589e-01 -6.976711750030517578e-01 -2.765173316001892090e-01
-1.437036395072937012e-01 -6.982212066650390625e-01 -2.529762387275695801e-01
-1.630090177059173584e-01 -6.986899375915527344e-01 -2.336518019437789917e-01
-1.816347539424896240e-01 -6.987632513046264648e-01 -2.138201594352722168e-01
-2.042844295501708984e-01 -6.983519196510314941e-01 -1.871210634708404541e-01
-2.289408147335052490e-01 -6.963342428207397461e-01 -1.669950336217880249e-01
-2.558303475379943848e-01 -6.946260929107666016e-01 -1.415652483701705933e-01
-1.261805146932601929e-01 -6.972857117652893066e-01 -3.207984268665313721e-01
-1.479086726903915405e-01 -6.974653005599975586e-01 -3.015787601470947266e-01
-1.673830747604370117e-01 -6.978222131729125977e-01 -2.803030610084533691e-01
-1.880476772785186768e-01 -6.981122493743896484e-01 -2.578445971012115479e-01
-2.083127200603485107e-01 -6.983474493026733398e-01 -2.364351153373718262e-01
-2.322532534599304199e-01 -6.981666088104248047e-01 -2.148327231407165527e-01
-2.571529448032379150e-01 -6.957482695579528809e-01 -1.887116432189941406e-01
-2.819467782974243164e-01 -6.941180229187011719e-01 -1.608359068632125854e-01
-1.587930023670196533e-01 -6.971077919006347656e-01 -3.384093046188354492e-01
-1.771902740001678467e-01 -6.966297030448913574e-01 -3.205238878726959229e-01
-1.988008022308349609e-01 -6.968632936477661133e-01 -3.033908009529113770e-01
-2.176068425178527832e-01 -6.971981525421142578e-01 -2.836471199989318848e-01
-2.381163835525512695e-01 -6.974220275878906250e-01 -2.610679566860198975e-01
-2.653113007545471191e-01 -6.971727609634399414e-01 -2.360337972640991211e-01
-2.876645922660827637e-01 -6.955301761627197266e-01 -2.069817185401916504e-01
-3.070342838764190674e-01 -6.928325891494750977e-01 -1.755872219800949097e-01
4.376965165138244629e-01 -6.949585676193237305e-01 2.191331535577774048e-01
4.364988803863525391e-01 -6.808083057403564453e-01 2.202993929386138916e-01
4.365772306919097900e-01 -6.571909785270690918e-01 2.194460481405258179e-01
4.375312030315399170e-01 -6.334518790245056152e-01 2.161581069231033325e-01
4.391338825225830078e-01 -6.070735454559326172e-01 2.120953053236007690e-01
4.398269057273864746e-01 -5.642876625061035156e-01 2.118979692459106445e-01
4.373067319393157959e-01 -5.258404016494750977e-01 2.210805267095565796e-01
4.268560707569122314e-01 -4.835230112075805664e-01 2.438354939222335815e-01
4.404965937137603760e-01 -6.975739598274230957e-01 1.756927818059921265e-01
4.348589777946472168e-01 -6.965181231498718262e-01 2.073340415954589844e-01
4.349131584167480469e-01 -6.827515363693237305e-01 2.111375033855438232e-01
4.348625838756561279e-01 -6.606361865997314453e-01 2.187854647636413574e-01
4.345092475414276123e-01 -6.367185115814208984e-01 2.241500765085220337e-01
4.309060871601104736e-01 -5.996527671813964844e-01 2.338913232088088989e-01
4.266440570354461670e-01 -5.527583360671997070e-01 2.427581101655960083e-01
4.183434844017028809e-01 -5.118377208709716797e-01 2.597973048686981201e-01
4.413144588470458984e-01 -6.999921202659606934e-01 1.431005001068115234e-01
4.338458776473999023e-01 -6.985702514648437500e-01 1.878621280193328857e-01
4.232869744300842285e-01 -6.967669725418090820e-01 2.344580739736557007e-01
4.220235943794250488e-01 -6.866710186004638672e-01 2.432404905557632446e-01
4.196008145809173584e-01 -6.647629737854003906e-01 2.546041309833526611e-01
4.165115654468536377e-01 -6.326985359191894531e-01 2.636160254478454590e-01
4.141150712966918945e-01 -5.862346887588500977e-01 2.660853862762451172e-01
4.077710509300231934e-01 -5.425961613655090332e-01 2.789148688316345215e-01
4.396633803844451904e-01 -7.022448182106018066e-01 1.338226795196533203e-01
4.273245334625244141e-01 -7.008029818534851074e-01 1.804903596639633179e-01
4.167216718196868896e-01 -7.002327442169189453e-01 2.299757450819015503e-01
4.109486937522888184e-01 -6.981484889984130859e-01 2.663873732089996338e-01
4.077994823455810547e-01 -6.898027658462524414e-01 2.810350358486175537e-01
4.052340686321258545e-01 -6.606687903404235840e-01 2.894610762596130371e-01
4.017220139503479004e-01 -6.195065975189208984e-01 2.912812232971191406e-01
3.972306251525878906e-01 -5.714960694313049316e-01 2.940016686916351318e-01
4.365602731704711914e-01 -7.056377530097961426e-01 1.329931616783142090e-01
4.194996953010559082e-01 -7.031754851341247559e-01 1.781681478023529053e-01
4.111725091934204102e-01 -7.019479274749755859e-01 2.206743359565734863e-01
4.025057852268218994e-01 -7.015414237976074219e-01 2.613884210586547852e-01
3.960960805416107178e-01 -6.994829773902893066e-01 2.934352159500122070e-01
3.934406042098999023e-01 -6.877273321151733398e-01 3.079512715339660645e-01
3.906392157077789307e-01 -6.528648734092712402e-01 3.096566796302795410e-01
3.819849789142608643e-01 -6.025558710098266602e-01 3.118515610694885254e-01
4.291204810142517090e-01 -7.055678367614746094e-01 1.330307126045227051e-01
4.107022285461425781e-01 -7.051163315773010254e-01 1.808314770460128784e-01
4.004425406455993652e-01 -7.034101486206054688e-01 2.121175378561019897e-01
3.946211338043212891e-01 -7.027714252471923828e-01 2.428828328847885132e-01
3.872491121292114258e-01 -7.024955749511718750e-01 2.735653221607208252e-01
3.789542317390441895e-01 -7.003955841064453125e-01 3.139158189296722412e-01
3.641227483749389648e-01 -6.851952672004699707e-01 3.303859233856201172e-01
3.510898053646087646e-01 -6.408037543296813965e-01 3.312569856643676758e-01
4.186390638351440430e-01 -7.053387165069580078e-01 1.145397499203681946e-01
3.997673094272613525e-01 -7.043253183364868164e-01 1.693695485591888428e-01
3.845277428627014160e-01 -7.056348919868469238e-01 2.073790878057479858e-01
3.705063462257385254e-01 -7.037562131881713867e-01 2.335558831691741943e-01
3.583252131938934326e-01 -7.040421366691589355e-01 2.594711184501647949e-01
3.393286466598510742e-01 -7.032610177993774414e-01 2.904171943664550781e-01
3.148856759071350098e-01 -7.009947299957275391e-01 3.345294594764709473e-01
2.904415428638458252e-01 -6.790385246276855469e-01 3.538890480995178223e-01
3.999080061912536621e-01 -7.046060562133789062e-01 9.311924874782562256e-02
3.768546581268310547e-01 -7.030104398727416992e-01 1.470156610012054443e-01
3.578771054744720459e-01 -7.035542726516723633e-01 1.841449290513992310e-01
3.369494676589965820e-01 -7.058435082435607910e-01 2.152644246816635132e-01
3.064910769462585449e-01 -7.052068710327148438e-01 2.434342801570892334e-01
2.746884822845458984e-01 -7.033865451812744141e-01 2.730170190334320068e-01
2.419513016939163208e-01 -7.027866244316101074e-01 3.022137284278869629e-01
2.060437053442001343e-01 -7.009891271591186523e-01 3.509934544563293457e-01
-1.799218356609344482e-03 -1.621208339929580688e-02 5.197516083717346191e-01
-1.597662270069122314e-02 1.274102367460727692e-02 5.202792882919311523e-01
-3.107078000903129578e-02 4.220796376466751099e-02 5.203348398208618164e-01
-4.350733757019042969e-02 7.076779007911682129e-02 5.192472934722900391e-01
-5.542986094951629639e-02 1.013191491365432739e-01 5.177041292190551758e-01
-6.450472772121429443e-02 1.342118978500366211e-01 5.159214735031127930e-01
-7.182253152132034302e-02 1.703104227781295776e-01 5.135580301284790039e-01
-8.133877813816070557e-02 2.074549198150634766e-01 5.116679072380065918e-01
-1.950991898775100708e-02 -2.992477640509605408e-02 5.203278064727783203e-01
-3.623557463288307190e-02 -7.257945835590362549e-04 5.199836492538452148e-01
-5.313293635845184326e-02 3.096254169940948486e-02 5.187244415283203125e-01
-6.591700017452239990e-02 6.053425744175910950e-02 5.171015858650207520e-01
-7.541339844465255737e-02 8.898558467626571655e-02 5.156912803649902344e-01
-8.233632147312164307e-02 1.152649968862533569e-01 5.137019157409667969e-01
-8.996056765317916870e-02 1.454249918460845947e-01 5.109283924102783203e-01
-9.940729290246963501e-02 1.844688802957534790e-01 5.067744851112365723e-01
-3.582710027694702148e-02 -4.435434564948081970e-02 5.196815133094787598e-01
-5.472513288259506226e-02 -1.396567001938819885e-02 5.186386704444885254e-01
-6.889282912015914917e-02 1.627920009195804596e-02 5.170320868492126465e-01
-8.004405349493026733e-02 4.316711798310279846e-02 5.156867504119873047e-01
-8.865365386009216309e-02 6.849468499422073364e-02 5.137594938278198242e-01
-9.661567956209182739e-02 9.621231257915496826e-02 5.098628401756286621e-01
-1.079635992646217346e-01 1.240245252847671509e-01 5.062796473503112793e-01
-1.191197261214256287e-01 1.648696511983871460e-01 5.025719404220581055e-01
-5.146054551005363464e-02 -6.273716688156127930e-02 5.186094641685485840e-01
-6.894508004188537598e-02 -3.193060681223869324e-02 5.170413851737976074e-01
-8.175856620073318481e-02 -2.135548740625381470e-03 5.156186819076538086e-01
-9.165851771831512451e-02 2.192888222634792328e-02 5.129717588424682617e-01
-1.004587337374687195e-01 4.782349243760108948e-02 5.093753933906555176e-01
-1.117782890796661377e-01 7.492788136005401611e-02 5.061904788017272949e-01
-1.236686110496520996e-01 1.047128885984420776e-01 5.027496814727783203e-01
-1.348124593496322632e-01 1.426628082990646362e-01 4.991390109062194824e-01
-6.752688437700271606e-02 -8.003230392932891846e-02 5.170000195503234863e-01
-8.297456800937652588e-02 -4.998601600527763367e-02 5.150650143623352051e-01
-9.473080188035964966e-02 -2.295259013772010803e-02 5.111756324768066406e-01
-1.038021296262741089e-01 1.850984990596771240e-04 5.084925293922424316e-01
-1.140007972717285156e-01 2.492341957986354828e-02 5.062776207923889160e-01
-1.271143257617950439e-01 5.403787270188331604e-02 5.026276707649230957e-01
-1.350640058517456055e-01 8.374334871768951416e-02 4.998281002044677734e-01
-1.454919874668121338e-01 1.202243864536285400e-01 4.963575303554534912e-01
-8.574887365102767944e-02 -9.510649740695953369e-02 5.141027569770812988e-01
-9.875024855136871338e-02 -6.857390701770782471e-02 5.088739991188049316e-01
-1.113631278276443481e-01 -4.355140402913093567e-02 5.062788128852844238e-01
-1.227610409259796143e-01 -2.195443958044052124e-02 5.041763186454772949e-01
-1.312494575977325439e-01 4.078224301338195801e-04 5.023878216743469238e-01
-1.397288888692855835e-01 2.998166903853416443e-02 4.995775818824768066e-01
-1.480790972709655762e-01 6.114610284566879272e-02 4.965003132820129395e-01
-1.585524082183837891e-01 9.881903231143951416e-02 4.928901195526123047e-01
-1.079671084880828857e-01 -1.092614829540252686e-01 5.084905028343200684e-01
-1.214524060487747192e-01 -8.474576473236083984e-02 5.047240853309631348e-01
-1.330398470163345337e-01 -6.350919604301452637e-02 5.008968114852905273e-01
-1.426367163658142090e-01 -4.215452447533607483e-02 4.988191127777099609e-01
-1.496206521987915039e-01 -1.987076178193092346e-02 4.971655607223510742e-01
-1.559871435165405273e-01 6.769377738237380981e-03 4.954215288162231445e-01
-1.641640663146972656e-01 3.840189054608345032e-02 4.923662245273590088e-01
-1.739957034587860107e-01 7.292948663234710693e-02 4.886775612831115723e-01
-1.438335627317428589e-01 -1.223467290401458740e-01 5.005790591239929199e-01
-1.565316021442413330e-01 -9.655578434467315674e-02 4.972553551197052002e-01
-1.636679768562316895e-01 -7.481005787849426270e-02 4.945812821388244629e-01
-1.673597395420074463e-01 -5.574748292565345764e-02 4.926821589469909668e-01
-1.703228056430816650e-01 -3.408991172909736633e-02 4.916065633296966553e-01
-1.752157807350158691e-01 -9.777721017599105835e-03 4.898694455623626709e-01
-1.829146742820739746e-01 1.804782636463642120e-02 4.870448112487792969e-01
-1.890087723731994629e-01 5.055873468518257141e-02 4.835751056671142578e-01
3.094685077667236328e-01 -4.560309350490570068e-01 4.042305946350097656e-01
2.948496639728546143e-01 -4.241805374622344971e-01 4.179611206054687500e-01
2.858884036540985107e-01 -3.960725367069244385e-01 4.285222291946411133e-01
2.774889767169952393e-01 -3.661810159683227539e-01 4.350622594356536865e-01
2.701588571071624756e-01 -3.321535587310791016e-01 4.393698275089263916e-01
2.612988352775573730e-01 -3.013062179088592529e-01 4.459069669246673584e-01
2.507509589195251465e-01 -2.716397643089294434e-01 4.527464807033538818e-01
2.373219728469848633e-01 -2.301060557365417480e-01 4.585594832897186279e-01
2.949331402778625488e-01 -4.755242764949798584e-01 4.173488616943359375e-01
2.796093821525573730e-01 -4.417689442634582520e-01 4.331009984016418457e-01
2.702950239181518555e-01 -4.139756858348846436e-01 4.422080814838409424e-01
2.627635300159454346e-01 -3.866667747497558594e-01 4.476799666881561279e-01
2.538613379001617432e-01 -3.587273061275482178e-01 4.528049528598785400e-01
2.444876283407211304e-01 -3.285804390907287598e-01 4.579667150974273682e-01
2.345760166645050049e-01 -2.950023710727691650e-01 4.631154835224151611e-01
2.213654518127441406e-01 -2.526377141475677490e-01 4.684357047080993652e-01
2.834600210189819336e-01 -4.976585507392883301e-01 4.321704804897308350e-01
2.706369459629058838e-01 -4.631134867668151855e-01 4.416404664516448975e-01
2.614002823829650879e-01 -4.338028132915496826e-01 4.489213526248931885e-01
2.520423829555511475e-01 -4.069117605686187744e-01 4.552707970142364502e-01
2.406978011131286621e-01 -3.804024159908294678e-01 4.611392319202423096e-01
2.299852520227432251e-01 -3.532809317111968994e-01 4.660050570964813232e-01
2.197246551513671875e-01 -3.182761073112487793e-01 4.702599048614501953e-01
2.049288153648376465e-01 -2.765325307846069336e-01 4.753578305244445801e-01
2.736415266990661621e-01 -5.194100141525268555e-01 4.398459196090698242e-01
2.624852359294891357e-01 -4.866418838500976562e-01 4.473741352558135986e-01
2.508894205093383789e-01 -4.570147693157196045e-01 4.551459848880767822e-01
2.400343567132949829e-01 -4.318954348564147949e-01 4.614297449588775635e-01
2.286949008703231812e-01 -4.065046310424804688e-01 4.675474166870117188e-01
2.194770276546478271e-01 -3.748985528945922852e-01 4.723093509674072266e-01
2.066582143306732178e-01 -3.439221978187561035e-01 4.757692515850067139e-01
1.884740144014358521e-01 -3.009186983108520508e-01 4.807759523391723633e-01
2.633769512176513672e-01 -5.413942337036132812e-01 4.466893970966339111e-01
2.513670623302459717e-01 -5.088667869567871094e-01 4.536295533180236816e-01
2.389941215515136719e-01 -4.803099036216735840e-01 4.614449143409729004e-01
2.275568991899490356e-01 -4.572108983993530273e-01 4.681476950645446777e-01
2.178996503353118896e-01 -4.322472214698791504e-01 4.735000729560852051e-01
2.052977085113525391e-01 -4.018521308898925781e-01 4.774719476699829102e-01
1.919010430574417114e-01 -3.687296509742736816e-01 4.810543060302734375e-01
1.757141649723052979e-01 -3.253549337387084961e-01 4.854178428649902344e-01
2.501585483551025391e-01 -5.598117113113403320e-01 4.542960822582244873e-01
2.370879501104354858e-01 -5.303063988685607910e-01 4.614840149879455566e-01
2.240552902221679688e-01 -5.026957988739013672e-01 4.689478874206542969e-01
2.142369449138641357e-01 -4.800694286823272705e-01 4.744233489036560059e-01
2.002211213111877441e-01 -4.541630148887634277e-01 4.792846143245697021e-01
1.873604506254196167e-01 -4.260542094707489014e-01 4.827985763549804688e-01
1.763583421707153320e-01 -3.939310014247894287e-01 4.857820868492126465e-01
1.631073653697967529e-01 -3.545421063899993896e-01 4.910222291946411133e-01
2.348581850528717041e-01 -5.733097791671752930e-01 4.629529714584350586e-01
2.189811915159225464e-01 -5.459583401679992676e-01 4.721267521381378174e-01
2.047704905271530151e-01 -5.213103294372558594e-01 4.797208607196807861e-01
1.915158182382583618e-01 -4.962298870086669922e-01 4.832381904125213623e-01
1.803432703018188477e-01 -4.713398218154907227e-01 4.858589172363281250e-01
1.698605120182037354e-01 -4.452958106994628906e-01 4.894977509975433350e-01
1.601800173521041870e-01 -4.177215695381164551e-01 4.939631819725036621e-01
1.475029736757278442e-01 -3.835384547710418701e-01 4.992578625679016113e-01
2.052340507507324219e-01 -5.839179158210754395e-01 4.821209013462066650e-01
1.879878491163253784e-01 -5.573151707649230957e-01 4.887151122093200684e-01
1.752082109451293945e-01 -5.325025320053100586e-01 4.921002686023712158e-01
1.663974225521087646e-01 -5.105705261230468750e-01 4.941776394844055176e-01
1.578930020332336426e-01 -4.853158593177795410e-01 4.963887333869934082e-01
1.467495858669281006e-01 -4.606270492076873779e-01 5.006831288337707520e-01
1.328446120023727417e-01 -4.346472620964050293e-01 5.069510340690612793e-01
1.159876286983489990e-01 -4.027257561683654785e-01 5.128667950630187988e-01
4.689302444458007812e-01 -2.084393948316574097e-01 5.811824649572372437e-02
4.694384038448333740e-01 -1.761144697666168213e-01 5.566304922103881836e-02
4.691353440284729004e-01 -1.432360410690307617e-01 5.276757478713989258e-02
4.689504504203796387e-01 -1.126715838909149170e-01 5.119719356298446655e-02
4.684992432594299316e-01 -8.546344935894012451e-02 5.054563283920288086e-02
4.684203565120697021e-01 -5.182713270187377930e-02 5.028578639030456543e-02
4.708522856235504150e-01 -1.755432784557342529e-02 5.465819686651229858e-02
4.739706218242645264e-01 9.791016578674316406e-03 7.380389422178268433e-02
4.683976173400878906e-01 -2.309226393699645996e-01 4.172310978174209595e-02
4.687437117099761963e-01 -1.940585821866989136e-01 3.473661094903945923e-02
4.684590101242065430e-01 -1.601995676755905151e-01 2.828243374824523926e-02
4.681313037872314453e-01 -1.290383338928222656e-01 2.655603736639022827e-02
4.673755764961242676e-01 -9.465712308883666992e-02 2.599240839481353760e-02
4.678603708744049072e-01 -6.093738973140716553e-02 2.409154921770095825e-02
4.685749411582946777e-01 -2.214320003986358643e-02 2.109395712614059448e-02
4.702837765216827393e-01 1.305155456066131592e-02 2.460049092769622803e-02
4.684301912784576416e-01 -2.495504617691040039e-01 3.032268583774566650e-02
4.679705202579498291e-01 -2.119126617908477783e-01 1.946686208248138428e-02
4.673411548137664795e-01 -1.773326694965362549e-01 1.060742512345314026e-02
4.669854044914245605e-01 -1.448541730642318726e-01 8.235480636358261108e-03
4.666373729705810547e-01 -1.073011755943298340e-01 6.041590124368667603e-03
4.663614630699157715e-01 -7.257817685604095459e-02 4.474487155675888062e-03
4.657005667686462402e-01 -3.580719232559204102e-02 1.090504229068756104e-04
4.649767279624938965e-01 3.883123397827148438e-03 -4.231512546539306641e-03
4.672546982765197754e-01 -2.693136632442474365e-01 1.606881245970726013e-02
4.671777188777923584e-01 -2.295215427875518799e-01 5.683731287717819214e-03
4.665580093860626221e-01 -1.965445429086685181e-01 -1.175429672002792358e-03
4.665038883686065674e-01 -1.616965979337692261e-01 -6.692826747894287109e-03
4.662051200866699219e-01 -1.251042485237121582e-01 -1.043087616562843323e-02
4.654636085033416748e-01 -8.894255757331848145e-02 -1.571759209036827087e-02
4.637961983680725098e-01 -4.890613257884979248e-02 -2.184312418103218079e-02
4.619660675525665283e-01 -1.129828393459320068e-02 -2.419908344745635986e-02
4.659442603588104248e-01 -2.900797724723815918e-01 -3.452215343713760376e-03
4.659141302108764648e-01 -2.475175857543945312e-01 -7.329192012548446655e-03
4.649137556552886963e-01 -2.135509252548217773e-01 -1.502792164683341980e-02
4.649046659469604492e-01 -1.820119917392730713e-01 -2.166173234581947327e-02
4.647017717361450195e-01 -1.446168124675750732e-01 -2.635199949145317078e-02
4.631935060024261475e-01 -1.095365434885025024e-01 -3.253646567463874817e-02
4.614162147045135498e-01 -6.809829175472259521e-02 -4.058956354856491089e-02
4.600956737995147705e-01 -2.944259345531463623e-02 -4.212837666273117065e-02
4.643901884555816650e-01 -3.063231110572814941e-01 -2.446541935205459595e-02
4.626516699790954590e-01 -2.654684782028198242e-01 -2.367471158504486084e-02
4.626767337322235107e-01 -2.303139865398406982e-01 -2.710380405187606812e-02
4.615330994129180908e-01 -1.954360008239746094e-01 -3.572899103164672852e-02
4.606973528861999512e-01 -1.629139780998229980e-01 -4.234369471669197083e-02
4.597216248512268066e-01 -1.294810324907302856e-01 -4.882054775953292847e-02
4.583035111427307129e-01 -9.553390741348266602e-02 -5.581740289926528931e-02
4.569225311279296875e-01 -5.171619355678558350e-02 -6.547299027442932129e-02
4.597986638545989990e-01 -3.184516727924346924e-01 -4.524084180593490601e-02
4.584000706672668457e-01 -2.815097868442535400e-01 -4.731711745262145996e-02
4.575281143188476562e-01 -2.421166300773620605e-01 -5.168187245726585388e-02
4.571397602558135986e-01 -2.114691436290740967e-01 -5.586863309144973755e-02
4.568494856357574463e-01 -1.790280938148498535e-01 -6.162420660257339478e-02
4.564059674739837646e-01 -1.480991393327713013e-01 -6.696656346321105957e-02
4.551440477371215820e-01 -1.149841398000717163e-01 -7.389669865369796753e-02
4.527222216129302979e-01 -7.662720978260040283e-02 -8.070024847984313965e-02
4.539468288421630859e-01 -3.175941109657287598e-01 -7.190175354480743408e-02
4.544616341590881348e-01 -2.916978299617767334e-01 -7.388862222433090210e-02
4.539066553115844727e-01 -2.555847465991973877e-01 -8.069664239883422852e-02
4.530945718288421631e-01 -2.235187590122222900e-01 -8.220730721950531006e-02
4.520244598388671875e-01 -1.930887699127197266e-01 -8.483764529228210449e-02
4.511985778808593750e-01 -1.647809296846389771e-01 -8.790212869644165039e-02
4.499686956405639648e-01 -1.325283944606781006e-01 -9.379880130290985107e-02
4.486232697963714600e-01 -9.656038880348205566e-02 -1.006466895341873169e-01
1.998533606529235840e-01 -6.976406574249267578e-01 -1.999728977680206299e-01
1.761741936206817627e-01 -6.985511779785156250e-01 -1.669156998395919800e-01
1.633713245391845703e-01 -6.994532942771911621e-01 -1.406687945127487183e-01
1.483874022960662842e-01 -7.002813816070556641e-01 -1.151047199964523315e-01
1.255280673503875732e-01 -7.012380361557006836e-01 -8.576318621635437012e-02
1.022383719682693481e-01 -7.010241150856018066e-01 -5.790767073631286621e-02
7.886213064193725586e-02 -7.011612653732299805e-01 -2.619612216949462891e-02
4.850961267948150635e-02 -6.995954513549804688e-01 5.320996046066284180e-03
1.704101264476776123e-01 -6.976752281188964844e-01 -2.165201008319854736e-01
1.517210006713867188e-01 -6.986266970634460449e-01 -1.869846880435943604e-01
1.350648701190948486e-01 -6.996527314186096191e-01 -1.614502668380737305e-01
1.121478676795959473e-01 -7.003987431526184082e-01 -1.392579078674316406e-01
8.857408165931701660e-02 -7.012873888015747070e-01 -1.193747222423553467e-01
6.805956363677978516e-02 -7.014408707618713379e-01 -9.029793739318847656e-02
4.898320138454437256e-02 -7.004571557044982910e-01 -6.169629096984863281e-02
2.245822548866271973e-02 -6.990282535552978516e-01 -3.071084618568420410e-02
1.483464241027832031e-01 -6.975498199462890625e-01 -2.378158569335937500e-01
1.293219923973083496e-01 -6.986062526702880859e-01 -2.092499732971191406e-01
1.051068082451820374e-01 -6.997818946838378906e-01 -1.871404200792312622e-01
7.776263356208801270e-02 -7.007365226745605469e-01 -1.657932698726654053e-01
5.721820890903472900e-02 -7.013251185417175293e-01 -1.454635709524154663e-01
3.899195790290832520e-02 -7.016034722328186035e-01 -1.222848445177078247e-01
2.029837667942047119e-02 -7.003055810928344727e-01 -9.681051969528198242e-02
-3.903567790985107422e-03 -6.985495090484619141e-01 -6.439372897148132324e-02
1.285560429096221924e-01 -6.973048448562622070e-01 -2.633869051933288574e-01
1.063565313816070557e-01 -6.983035206794738770e-01 -2.354792654514312744e-01
7.841251790523529053e-02 -6.997237801551818848e-01 -2.129185497760772705e-01
5.511280894279479980e-02 -7.005833387374877930e-01 -1.916546970605850220e-01
3.469479084014892578e-02 -7.010675668716430664e-01 -1.682496666908264160e-01
1.514731347560882568e-02 -7.014202475547790527e-01 -1.479947715997695923e-01
-4.944354295730590820e-03 -7.005572319030761719e-01 -1.224077194929122925e-01
-3.001968562602996826e-02 -6.986557245254516602e-01 -9.534955024719238281e-02
1.044815629720687866e-01 -6.974190473556518555e-01 -2.933229207992553711e-01
8.105395734310150146e-02 -6.978858709335327148e-01 -2.627280950546264648e-01
5.816885828971862793e-02 -6.989232897758483887e-01 -2.375472486019134521e-01
3.660477697849273682e-02 -6.999609470367431641e-01 -2.157926261425018311e-01
1.617522537708282471e-02 -7.006797790527343750e-01 -1.926927864551544189e-01
-5.290359258651733398e-03 -7.012110948562622070e-01 -1.701999753713607788e-01
-2.647793292999267578e-02 -7.007210850715637207e-01 -1.463648974895477295e-01
-5.597466230392456055e-02 -6.989947557449340820e-01 -1.203066259622573853e-01
7.286013662815093994e-02 -6.978031992912292480e-01 -3.224889636039733887e-01
5.316226184368133545e-02 -6.977596282958984375e-01 -2.904759049415588379e-01
3.471370041370391846e-02 -6.984621286392211914e-01 -2.657362520694732666e-01
1.812288165092468262e-02 -6.991176009178161621e-01 -2.405318617820739746e-01
-2.409964799880981445e-03 -6.997563242912292480e-01 -2.188969701528549194e-01
-2.657842636108398438e-02 -7.007191181182861328e-01 -1.938515752553939819e-01
-5.360566079616546631e-02 -7.007018327713012695e-01 -1.686322689056396484e-01
-8.881154656410217285e-02 -6.991337537765502930e-01 -1.398158222436904907e-01
3.922787308692932129e-02 -6.980205774307250977e-01 -3.555482327938079834e-01
2.176934480667114258e-02 -6.979355216026306152e-01 -3.199304938316345215e-01
3.251463174819946289e-03 -6.980283856391906738e-01 -2.922653257846832275e-01
-2.027133107185363770e-02 -6.986415982246398926e-01 -2.680064737796783447e-01
-4.168520867824554443e-02 -6.990273594856262207e-01 -2.424529492855072021e-01
-6.515249609947204590e-02 -6.995406746864318848e-01 -2.171073108911514282e-01
-9.433689713478088379e-02 -6.999781727790832520e-01 -1.884385347366333008e-01
-1.296409666538238525e-01 -6.988937258720397949e-01 -1.577217429876327515e-01
-3.143146634101867676e-03 -6.970415711402893066e-01 -3.795725107192993164e-01
-2.040210366249084473e-02 -6.976389884948730469e-01 -3.528071343898773193e-01
-4.249179363250732422e-02 -6.976884603500366211e-01 -3.213957548141479492e-01
-6.934799253940582275e-02 -6.980744600296020508e-01 -2.915225327014923096e-01
-9.403911232948303223e-02 -6.988344788551330566e-01 -2.639319598674774170e-01
-1.191786527633666992e-01 -6.993731260299682617e-01 -2.402908205986022949e-01
-1.527096033096313477e-01 -6.987653970718383789e-01 -2.081830501556396484e-01
-1.841284930706024170e-01 -6.977058053016662598e-01 -1.750397384166717529e-01
-4.534389376640319824e-01 5.032688975334167480e-01 -5.980850756168365479e-02
-4.527930915355682373e-01 5.432711243629455566e-01 -6.576027721166610718e-02
-4.485228657722473145e-01 6.005195975303649902e-01 -7.514831423759460449e-02
-4.489713311195373535e-01 6.397264003753662109e-01 -8.012802898883819580e-02
-4.492473006248474121e-01 6.698600053787231445e-01 -7.862104475498199463e-02
-4.530844688415527344e-01 6.989579200744628906e-01 -6.627579778432846069e-02
-4.568859934806823730e-01 7.222846746444702148e-01 -4.055263102054595947e-02
-4.610732495784759521e-01 7.441120147705078125e-01 -3.972247242927551270e-03
-4.437996447086334229e-01 4.630569219589233398e-01 -7.663553953170776367e-02
-4.409993588924407959e-01 5.188750028610229492e-01 -8.684611320495605469e-02
-4.392423629760742188e-01 5.753691792488098145e-01 -9.975004196166992188e-02
-4.391750991344451904e-01 6.217905282974243164e-01 -1.073015630245208740e-01
-4.391980767250061035e-01 6.533910632133483887e-01 -1.072386354207992554e-01
-4.411803185939788818e-01 6.859139204025268555e-01 -1.061401069164276123e-01
-4.451665282249450684e-01 7.234241962432861328e-01 -9.002877771854400635e-02
-4.520709812641143799e-01 7.531214356422424316e-01 -5.243364721536636353e-02
-4.359614551067352295e-01 4.192266464233398438e-01 -9.362547099590301514e-02
-4.341294169425964355e-01 4.940158724784851074e-01 -1.058461070060729980e-01
-4.333689212799072266e-01 5.455805063247680664e-01 -1.137153208255767822e-01
-4.378150105476379395e-01 5.929034948348999023e-01 -1.111449599266052246e-01
-4.421950578689575195e-01 6.303689479827880859e-01 -1.054721772670745850e-01
-4.450282156467437744e-01 6.634256243705749512e-01 -9.652884304523468018e-02
-4.493262469768524170e-01 7.024931907653808594e-01 -8.493392169475555420e-02
-4.564236402511596680e-01 7.465759515762329102e-01 -5.678379535675048828e-02
-4.338512122631072998e-01 3.621361851692199707e-01 -9.181393682956695557e-02
-4.300216436386108398e-01 4.552515149116516113e-01 -1.126508712768554688e-01
-4.347472786903381348e-01 5.166823267936706543e-01 -1.097985282540321350e-01
-4.411709010601043701e-01 5.540112853050231934e-01 -9.874276816844940186e-02
-4.462008476257324219e-01 5.948883295059204102e-01 -9.289304912090301514e-02
-4.480676651000976562e-01 6.354119777679443359e-01 -8.432349562644958496e-02
-4.521951675415039062e-01 6.751942634582519531e-01 -7.376408576965332031e-02
-4.593183696269989014e-01 7.198299169540405273e-01 -5.840292572975158691e-02
-4.341675937175750732e-01 3.185227215290069580e-01 -8.965235948562622070e-02
-4.342097043991088867e-01 4.040700197219848633e-01 -9.512096643447875977e-02
-4.412204325199127197e-01 4.780141115188598633e-01 -9.040642529726028442e-02
-4.467819333076477051e-01 5.193313360214233398e-01 -8.375725150108337402e-02
-4.495030641555786133e-01 5.539500713348388672e-01 -7.762183248996734619e-02
-4.513511955738067627e-01 5.982199907302856445e-01 -7.101669162511825562e-02
-4.559167921543121338e-01 6.429064273834228516e-01 -6.022615730762481689e-02
-4.632303416728973389e-01 6.894584894180297852e-01 -4.773765802383422852e-02
-4.292136728763580322e-01 3.225057125091552734e-01 -1.192142143845558167e-01
-4.433751106262207031e-01 3.549002408981323242e-01 -6.976931542158126831e-02
-4.477359056472778320e-01 4.274970889091491699e-01 -7.026351988315582275e-02
-4.515645503997802734e-01 4.831601679325103760e-01 -6.563339382410049438e-02
-4.543057084083557129e-01 5.223434567451477051e-01 -5.740737915039062500e-02
-4.573905169963836670e-01 5.565585494041442871e-01 -5.026625096797943115e-02
-4.617205560207366943e-01 6.097729802131652832e-01 -4.118030518293380737e-02
-4.659759700298309326e-01 6.559512615203857422e-01 -3.139893710613250732e-02
-4.231649637222290039e-01 3.785448372364044189e-01 -1.293875575065612793e-01
