4.333671927452087402e-02 -3.543566763401031494e-01 -5.482175946235656738e-01
-4.565760791301727295e-01 1.355489194393157959e-01 -2.723169513046741486e-02
1.914903819561004639e-01 -3.631682693958282471e-01 4.688304960727691650e-01
6.007457152009010315e-02 -2.283704131841659546e-01 -7.451514005661010742e-01
1.898702979087829590e-02 -6.946903467178344727e-01 1.911077052354812622e-01
1.352591365575790405e-01 -6.946903467178344727e-01 -1.307447161525487900e-02
2.584415972232818604e-01 -2.370758056640625000e-01 -3.377963602542877197e-01
3.692096769809722900e-01 -1.299822181463241577e-01 3.264335095882415771e-01
-1.327115744352340698e-01 -1.216124743223190308e-01 -3.984301984310150146e-01
-9.921865910291671753e-02 -6.946903467178344727e-01 -2.710216641426086426e-01
-2.272735536098480225e-01 -6.946903467178344727e-01 -2.347242683172225952e-01
-2.750557661056518555e-01 2.076634764671325684e-01 4.191668629646301270e-01
2.286045104265213013e-01 1.127912327647209167e-01 4.534576833248138428e-01
2.118176370859146118e-01 -6.946903467178344727e-01 3.983910754323005676e-02
-4.111704528331756592e-01 1.330336332321166992e-01 2.629573047161102295e-01
-1.306081712245941162e-01 -5.356782078742980957e-01 4.938268959522247314e-01
3.335022032260894775e-01 -1.531031131744384766e-01 3.729679286479949951e-01
-1.092204898595809937e-01 3.675404563546180725e-02 -4.049706459045410156e-01
-4.655168354511260986e-01 3.487763106822967529e-01 4.068787023425102234e-02
-1.451159417629241943e-01 -7.419519871473312378e-02 4.878177344799041748e-01
-5.238386616110801697e-02 -6.946903467178344727e-01 4.982976615428924561e-01
4.032425880432128906e-01 3.452754318714141846e-01 2.820814251899719238e-01
-4.509839713573455811e-01 4.229415059089660645e-01 -6.971244513988494873e-02
1.727622449398040771e-01 -2.940156459808349609e-01 4.765877723693847656e-01
-2.166217714548110962e-01 6.176912784576416016e-01 4.581997394561767578e-01
-1.246972754597663879e-02 3.312874436378479004e-01 5.122342109680175781e-01
1.993075311183929443e-01 -2.576049864292144775e-01 -3.710671365261077881e-01
5.401505902409553528e-02 -7.755901664495468140e-02 5.068345069885253906e-01
-2.075041383504867554e-01 -6.946903467178344727e-01 2.451213002204895020e-01
-2.593099176883697510e-01 8.016014695167541504e-01 4.312485456466674805e-01
2.734540402889251709e-02 -5.027219653129577637e-01 5.103458166122436523e-01
4.605416655540466309e-01 -2.858017086982727051e-01 -1.119028776884078979e-03
3.042619228363037109e-01 -6.936745643615722656e-01 -3.026335239410400391e-01
-3.430661559104919434e-01 -6.946903467178344727e-01 6.695764511823654175e-02
2.064777314662933350e-01 -4.411665797233581543e-01 -3.680972158908843994e-01
4.230488240718841553e-01 -5.501803159713745117e-01 2.355370521545410156e-01
-2.243494093418121338e-01 -6.946903467178344727e-01 -3.602309226989746094e-01
-1.643842160701751709e-01 -6.065246462821960449e-01 -3.853112459182739258e-01
-4.876357316970825195e-02 4.449932873249053955e-01 5.074557662010192871e-01
-2.498733848333358765e-01 2.287365794181823730e-01 -3.439633250236511230e-01
-3.085067868232727051e-01 -5.148903131484985352e-01 3.935001194477081299e-01
-4.333245754241943359e-01 8.608032464981079102e-01 1.704698055982589722e-01
2.074100822210311890e-01 -6.946903467178344727e-01 -3.288454115390777588e-01
-4.362743198871612549e-01 -5.987632870674133301e-01 2.023467421531677246e-01
7.728490233421325684e-02 -6.946903467178344727e-01 3.993499577045440674e-01
1.089408621191978455e-02 4.422690570354461670e-01 5.125117301940917969e-01
-1.005216613411903381e-01 3.104782477021217346e-02 5.006414055824279785e-01
-3.318523764610290527e-01 -2.898666858673095703e-01 3.744368553161621094e-01
3.194130063056945801e-01 3.758639991283416748e-01 3.855338990688323975e-01
3.634319007396697998e-01 2.260483950376510620e-01 3.339631855487823486e-01
-2.825133502483367920e-01 1.253921091556549072e-01 4.134447276592254639e-01
-1.954456567764282227e-01 -6.148641705513000488e-01 4.669709503650665283e-01
-1.279582455754280090e-02 -6.946903467178344727e-01 -2.058756947517395020e-01
-4.162717163562774658e-01 6.504037976264953613e-01 -1.561136841773986816e-01
-2.020082026720046997e-01 -6.946903467178344727e-01 4.101197719573974609e-01
4.440770745277404785e-01 -6.946903467178344727e-01 -3.295727819204330444e-02
-4.312250018119812012e-01 2.263124436140060425e-01 -1.200113743543624878e-01
-3.449502885341644287e-01 3.852414190769195557e-01 -2.628402709960937500e-01
-4.591154158115386963e-01 -6.857414245605468750e-01 -7.941321469843387604e-03
3.174174427986145020e-01 -3.955351710319519043e-01 3.870652616024017334e-01
-9.025200456380844116e-02 -3.429385423660278320e-01 -4.074680507183074951e-01
2.177119404077529907e-01 7.735522389411926270e-01 4.579694271087646484e-01
-4.523786604404449463e-01 6.129804849624633789e-01 1.536430865526199341e-01
1.235903352499008179e-01 -6.946903467178344727e-01 -1.222039014101028442e-01
2.994584143161773682e-01 -6.946903467178344727e-01 -1.406596302986145020e-01
1.267713606357574463e-01 -6.946903467178344727e-01 1.930311322212219238e-01
-4.506976306438446045e-01 3.154298663139343262e-01 -7.188786566257476807e-02
-2.130628526210784912e-01 2.051375806331634521e-01 4.596738517284393311e-01
-3.064726293087005615e-01 7.671400904655456543e-02 -3.005337417125701904e-01
-2.223311364650726318e-01 -1.464594453573226929e-01 4.558348953723907471e-01
3.573675155639648438e-01 -3.838346898555755615e-01 3.418663740158081055e-01
-4.576206207275390625e-01 8.081732392311096191e-01 -1.929651014506816864e-02
4.489167928695678711e-01 -2.419410198926925659e-01 -7.855915278196334839e-02
-2.008950114250183105e-01 -6.946903467178344727e-01 2.967217564582824707e-01
-2.119469046592712402e-01 7.375355362892150879e-01 4.601361155509948730e-01
-4.607437849044799805e-01 -4.281278848648071289e-01 9.009666740894317627e-02
2.125096172094345093e-01 -6.328205466270446777e-01 -3.655987977981567383e-01
-4.284654557704925537e-01 -4.857617318630218506e-01 -1.266738921403884888e-01
3.112108111381530762e-01 -6.946903467178344727e-01 8.329518139362335205e-03
-2.945268452167510986e-01 2.225505709648132324e-01 -3.096999526023864746e-01
-8.635673671960830688e-02 -2.173752188682556152e-01 -7.528041005134582520e-01
-3.475293219089508057e-01 4.935747683048248291e-01 3.540071249008178711e-01
2.488578855991363525e-01 -6.496856808662414551e-01 4.396767616271972656e-01
-4.660714864730834961e-01 -4.627615958452224731e-02 4.962432384490966797e-02
-3.695529103279113770e-01 6.635996699333190918e-01 -2.307788729667663574e-01
4.618925452232360840e-01 -2.955564558506011963e-01 8.538839966058731079e-02
-4.039234668016433716e-02 6.144045591354370117e-01 5.085579156875610352e-01
-2.788773477077484131e-01 -1.490667909383773804e-01 -3.217080533504486084e-01
1.424510478973388672e-01 5.789253860712051392e-02 4.891427755355834961e-01
4.144923985004425049e-01 1.839185953140258789e-01 2.561945915222167969e-01
-2.994506061077117920e-01 -6.946903467178344727e-01 -2.451500147581100464e-01
-1.420262008905410767e-01 -4.973827600479125977e-01 -3.945720493793487549e-01
4.306525886058807373e-01 2.428118168609216809e-04 2.171795070171356201e-01
-2.088398933410644531e-01 -2.089170217514038086e-01 4.614230394363403320e-01
-2.350076138973236084e-01 -6.946903467178344727e-01 9.262650855816900730e-04
2.807660698890686035e-01 -3.610705435276031494e-01 -3.206644058227539062e-01
1.174372583627700806e-01 1.086934376507997513e-02 4.984845817089080811e-01
-4.209370911121368408e-01 7.931381464004516602e-01 -1.448499560356140137e-01
4.524331688880920410e-01 2.312495745718479156e-02 1.572060585021972656e-01
-2.446228265762329102e-01 3.557644188404083252e-01 4.425178766250610352e-01
4.658944308757781982e-01 -3.410296440124511719e-01 5.500530079007148743e-02
-1.338256746530532837e-01 1.534502357244491577e-01 4.924941658973693848e-01
4.453804790973663330e-01 -6.594300866127014160e-01 1.816223263740539551e-01
4.622338414192199707e-01 -6.824740767478942871e-01 8.279729634523391724e-02
-4.482355415821075439e-01 -1.435712631791830063e-02 -7.894214987754821777e-02
-3.429721295833587646e-01 -6.946903467178344727e-01 -3.036346286535263062e-03
-4.423522353172302246e-01 9.774337708950042725e-02 1.876723319292068481e-01
2.551107406616210938e-01 -6.946903467178344727e-01 -1.139026209712028503e-01
4.618689715862274170e-01 -6.370962262153625488e-01 8.958061225712299347e-03
-3.469023108482360840e-01 2.993132174015045166e-01 3.548242151737213135e-01
-4.298740625381469727e-01 -6.946903467178344727e-01 1.692796051502227783e-01
3.521288037300109863e-01 6.111363172531127930e-01 3.486934602260589600e-01
1.637838929891586304e-01 -6.946903467178344727e-01 9.745021164417266846e-02
4.568534791469573975e-01 -1.249312907457351685e-01 1.236460730433464050e-01
-4.526523947715759277e-01 -2.484520375728607178e-01 -5.703813210129737854e-02
-4.481696784496307373e-01 4.910118877887725830e-01 -7.910111546516418457e-02
1.294306963682174683e-01 -4.803542792797088623e-01 4.945358633995056152e-01
-3.191192150115966797e-01 5.661392211914062500e-01 3.853572905063629150e-01
-4.010833799839019775e-01 2.602024674415588379e-01 2.842169702053070068e-01
-2.942291786894202232e-03 -3.933852165937423706e-02 -4.189631640911102295e-01
3.019039332866668701e-01 9.564875811338424683e-02 3.989700675010681152e-01
4.204442724585533142e-02 -5.342617630958557129e-01 -4.138851165771484375e-01
2.535621263086795807e-02 6.711255311965942383e-01 5.106076598167419434e-01
-4.304620027542114258e-01 -3.731840252876281738e-01 -1.218534931540489197e-01
1.327871978282928467e-01 1.244515627622604370e-01 4.931455552577972412e-01
2.843415737152099609e-01 -2.772400081157684326e-01 -3.179205358028411865e-01
6.553418189287185669e-02 -6.946903467178344727e-01 -3.607042431831359863e-01
-4.141299724578857422e-01 -4.975117743015289307e-03 2.558119297027587891e-01
-4.088308215141296387e-01 -4.025044441223144531e-01 2.686060667037963867e-01
3.833487331867218018e-01 -5.424800515174865723e-01 3.080073297023773193e-01
4.570171236991882324e-01 -1.039768382906913757e-01 -2.787813916802406311e-02
-2.166611105203628540e-01 -6.452640295028686523e-01 -3.636580109596252441e-01
-2.882772982120513916e-01 -3.288891017436981201e-01 4.090220630168914795e-01
-3.137006163597106934e-01 -2.587709724903106689e-01 -2.949876189231872559e-01
2.586168646812438965e-01 -3.897121921181678772e-02 4.321878850460052490e-01
-1.249721720814704895e-01 -5.438136458396911621e-01 -4.016358554363250732e-01
-4.222166240215301514e-01 -6.349806785583496094e-01 2.362875640392303467e-01
-4.418510794639587402e-01 -6.240471079945564270e-02 1.888822913169860840e-01
1.908798664808273315e-01 -3.620399534702301025e-01 -3.745579123497009277e-01
3.260278701782226562e-01 -2.941471040248870850e-01 3.804577291011810303e-01
-3.523361682891845703e-01 7.663972377777099609e-01 3.477429747581481934e-01
-1.781786829233169556e-01 -6.946903467178344727e-01 -2.888159453868865967e-01
-4.587222337722778320e-01 6.602602601051330566e-01 1.054534986615180969e-01
-4.628728628158569336e-01 -6.310394406318664551e-01 7.392279058694839478e-02
6.712239235639572144e-03 -5.651909112930297852e-01 5.130622386932373047e-01
-1.988269537687301636e-01 -6.946903467178344727e-01 1.961396187543869019e-01
-2.501026690006256104e-01 5.140718817710876465e-02 4.383132159709930420e-01
4.252009987831115723e-01 -6.754931807518005371e-01 -1.358143389225006104e-01
3.808183073997497559e-01 -2.309152632951736450e-01 -2.167772948741912842e-01
-4.431088566780090332e-01 2.027672678232192993e-01 1.858455091714859009e-01
-4.493941068649291992e-01 8.035652637481689453e-01 1.706705093383789062e-01
-5.381924659013748169e-02 -6.946903467178344727e-01 1.682734042406082153e-01
2.268186807632446289e-01 -6.946903467178344727e-01 2.722576260566711426e-01
-1.026792153716087341e-01 -3.764749765396118164e-01 -4.415071010589599609e-01
2.678100168704986572e-01 -6.946903467178344727e-01 1.641178727149963379e-01
1.376815736293792725e-01 -8.304415643215179443e-02 4.911183118820190430e-01
-4.550711214542388916e-01 7.175838351249694824e-01 1.331893950700759888e-01
-6.175230816006660461e-02 7.166882753372192383e-01 5.057457089424133301e-01
-4.062245190143585205e-01 4.641579389572143555e-01 2.748987078666687012e-01
-4.515618085861206055e-01 8.264729380607604980e-01 -6.532289832830429077e-02
3.059557080268859863e-02 1.660509109497070312e-01 5.099178552627563477e-01
8.464017510414123535e-02 7.314383387565612793e-01 5.028025507926940918e-01
5.561054497957229614e-02 -4.648482799530029297e-01 -4.120990633964538574e-01
-2.796844542026519775e-01 -6.946903467178344727e-01 7.736977934837341309e-02
-6.975131481885910034e-02 -6.011875867843627930e-01 5.046926140785217285e-01
-9.926304221153259277e-02 -6.646276265382766724e-02 -4.062816500663757324e-01
-3.809403479099273682e-01 -3.653037548065185547e-01 -2.159390747547149658e-01
-4.585284888744354248e-01 -3.830393552780151367e-01 -1.239985879510641098e-02
-4.651684761047363281e-01 -3.241056203842163086e-01 5.648408457636833191e-02
-4.012691378593444824e-01 -4.708866775035858154e-01 -1.894471943378448486e-01
-4.248627722263336182e-01 -1.711020171642303467e-01 -1.353719681501388550e-01
-5.308583006262779236e-02 -4.523283243179321289e-01 -4.123612642288208008e-01
-3.617482483386993408e-01 -6.946449279785156250e-01 -2.409496605396270752e-01
2.327424287796020508e-02 -6.946903467178344727e-01 -2.475919425487518311e-01
-4.252718687057495117e-01 3.852518796920776367e-01 2.289109975099563599e-01
-4.636078476905822754e-01 5.900207757949829102e-01 2.618593536317348480e-02
-1.513876318931579590e-01 -6.946903467178344727e-01 -1.755549609661102295e-01
-2.980276644229888916e-01 6.677533388137817383e-01 4.015406668186187744e-01
-4.546318352222442627e-01 -8.732201904058456421e-02 -4.200100526213645935e-02
-1.500637382268905640e-01 2.648539543151855469e-01 4.857683479785919189e-01
-3.979871571063995361e-01 -1.298624183982610703e-02 -1.937241852283477783e-01
2.093853615224361420e-02 -2.982800900936126709e-01 5.111892819404602051e-01
-4.351007640361785889e-01 4.690612256526947021e-01 2.051802575588226318e-01
3.890982568264007568e-01 -6.946903467178344727e-01 1.296462118625640869e-01
-2.850696742534637451e-01 7.143867611885070801e-01 4.114832580089569092e-01
-4.583983123302459717e-01 -1.875889450311660767e-01 -1.338888797909021378e-02
-3.832604587078094482e-01 5.327488183975219727e-01 3.074432909488677979e-01
-5.164080113172531128e-02 -6.946903467178344727e-01 -5.274903401732444763e-02
-2.142382711172103882e-01 -1.907120347023010254e-01 -3.646615743637084961e-01
3.945056498050689697e-01 -3.994124382734298706e-02 2.934675216674804688e-01
-1.412754505872726440e-01 -4.243101477622985840e-01 4.894084632396697998e-01
2.365718930959701538e-01 -3.863187432289123535e-01 4.491048455238342285e-01
-5.797445401549339294e-02 -2.649541199207305908e-01 -7.045747041702270508e-01
-3.901335299015045166e-01 -5.770698189735412598e-01 2.984865307807922363e-01
-4.476433694362640381e-01 5.921127796173095703e-01 -8.037188649177551270e-02
-2.918944060802459717e-01 -3.289689123630523682e-01 -3.117198348045349121e-01
-3.771029412746429443e-01 2.873500883579254150e-01 3.154675662517547607e-01
2.845988571643829346e-01 3.948841392993927002e-01 4.122497439384460449e-01
-3.269569575786590576e-01 2.224888652563095093e-01 3.793434202671051025e-01
1.298638135194778442e-01 -4.827636182308197021e-01 -3.998309969902038574e-01
4.416309297084808350e-01 -2.734632194042205811e-01 1.906747817993164062e-01
-3.456579446792602539e-01 5.907102227210998535e-01 -2.619180977344512939e-01
-4.229790866374969482e-01 -1.536551713943481445e-01 2.344466298818588257e-01
-3.673566877841949463e-01 1.420754287391901016e-02 -2.336409538984298706e-01
1.629821956157684326e-01 -5.719455480575561523e-01 4.806386828422546387e-01
-4.428496062755584717e-01 2.972453236579895020e-01 1.864714175462722778e-01
-4.115175306797027588e-01 -6.946903467178344727e-01 6.973144412040710449e-02
-1.676402091979980469e-01 7.175420522689819336e-01 4.784880876541137695e-01
7.746552675962448120e-02 -3.954185247421264648e-01 5.037471055984497070e-01
-4.679956287145614624e-02 1.657721400260925293e-01 5.077143907546997070e-01
-3.598546683788299561e-01 4.238738417625427246e-01 3.379450440406799316e-01
-2.711831331253051758e-01 9.314967691898345947e-02 -3.276119828224182129e-01
-1.365506798028945923e-01 -6.946903467178344727e-01 4.480938911437988281e-01
4.412345215678215027e-02 -6.946903467178344727e-01 3.224764764308929443e-01
4.285647869110107422e-01 -4.365054368972778320e-01 2.222200185060501099e-01
-4.590562582015991211e-01 6.300606131553649902e-01 -8.390820585191249847e-03
1.603791713714599609e-01 3.581044375896453857e-01 4.817168712615966797e-01
-4.514814913272857666e-01 5.287135243415832520e-01 1.604584753513336182e-01
4.551975727081298828e-01 -4.770946204662322998e-01 -4.169255495071411133e-02
8.710941672325134277e-02 -5.975993275642395020e-01 5.024774670600891113e-01
-2.790454924106597900e-01 -3.912162035703659058e-02 4.161055684089660645e-01
-4.594050049781799316e-01 3.521761596202850342e-01 -5.741361062973737717e-03
-1.347980499267578125e-01 6.392710804939270020e-01 4.920914173126220703e-01
-3.710753470659255981e-02 -3.712444603443145752e-01 -4.785303175449371338e-01
-3.881523609161376953e-01 -1.541517376899719238e-01 -2.065405845642089844e-01
3.375468552112579346e-01 3.275777697563171387e-01 3.676968812942504883e-01
-1.803736835718154907e-01 -6.946903467178344727e-01 -3.355978131294250488e-01
-3.927860260009765625e-01 1.207507625222206116e-01 -2.005021423101425171e-01
6.891248375177383423e-02 1.001330558210611343e-02 5.048732161521911621e-01
-3.466169536113739014e-01 -6.946903467178344727e-01 3.441788852214813232e-01
-1.314040720462799072e-01 1.354568898677825928e-01 -3.989717662334442139e-01
1.692014485597610474e-01 7.599227428436279297e-01 4.780626893043518066e-01
-1.320160329341888428e-01 8.456208109855651855e-01 4.932437241077423096e-01
-2.294983714818954468e-01 -3.923265039920806885e-01 -3.583407402038574219e-01
-2.454794943332672119e-01 5.848379135131835938e-01 4.418605268001556396e-01
-3.400768339633941650e-01 -6.408048272132873535e-01 -2.691912651062011719e-01
-3.032769858837127686e-01 -6.388924121856689453e-01 -3.029858171939849854e-01
-2.522208094596862793e-01 5.288510918617248535e-01 4.366880059242248535e-01
8.960444480180740356e-02 7.875068783760070801e-01 5.021489858627319336e-01
3.564736247062683105e-01 -5.955798625946044922e-01 -2.485035657882690430e-01
-1.701954007148742676e-02 7.348501086235046387e-01 5.116351842880249023e-01
9.402015060186386108e-02 -6.946903467178344727e-01 1.803202927112579346e-02
-4.457241892814636230e-01 7.877762615680694580e-02 -8.500535786151885986e-02
-4.582697451114654541e-01 6.246443092823028564e-02 1.088908091187477112e-01
4.668089747428894043e-01 -5.858987569808959961e-01 4.806155711412429810e-02
2.429829537868499756e-01 3.135550916194915771e-01 4.441851079463958740e-01
2.936497628688812256e-01 -6.306774616241455078e-01 -3.107773363590240479e-01
-3.017719686031341553e-01 1.679794639348983765e-01 -3.041406869888305664e-01
-1.078703999519348145e-02 -6.946903467178344727e-01 7.901633530855178833e-02
-3.651611879467964172e-02 -5.140380263328552246e-01 -4.145428538322448730e-01
-4.246453642845153809e-01 5.431449413299560547e-01 -1.358968764543533325e-01
-4.171653389930725098e-01 -3.144823014736175537e-01 2.484833002090454102e-01
4.236781299114227295e-01 -3.305282294750213623e-01 -1.394909173250198364e-01
-2.254020720720291138e-01 2.792573571205139160e-01 -3.600374758243560791e-01
-4.387261867523193359e-01 7.324483394622802734e-01 -1.019009873270988464e-01
-4.147266745567321777e-01 7.627501487731933594e-01 2.543711960315704346e-01
-2.311564087867736816e-01 1.887293905019760132e-01 -3.576540052890777588e-01
-2.217516750097274780e-01 1.950668171048164368e-02 4.560749530792236328e-01
-4.201360642910003662e-01 -2.960890531539916992e-01 -1.467838287353515625e-01
-7.087004929780960083e-02 -1.388121843338012695e-01 5.045453310012817383e-01
-4.063865542411804199e-01 -4.965136647224426270e-01 2.745074927806854248e-01
3.893408477306365967e-01 2.482246309518814087e-01 3.001983761787414551e-01
-3.608579039573669434e-01 -4.471699893474578857e-01 -2.421099841594696045e-01
2.409198693931102753e-02 9.063031524419784546e-02 5.107741355895996094e-01
2.181443125009536743e-01 -1.079607307910919189e-01 4.577903151512145996e-01
-7.907975465059280396e-02 3.220221400260925293e-01 5.034644007682800293e-01
-2.280103415250778198e-01 -2.908110022544860840e-01 -3.589570820331573486e-01
-4.638729095458984375e-01 2.196166366338729858e-01 2.819942310452461243e-02
-3.379006385803222656e-01 -3.704697191715240479e-01 -2.720271944999694824e-01
4.610728025436401367e-01 -5.914942622184753418e-01 2.913214731961488724e-03
3.339188918471336365e-02 -1.359491050243377686e-01 5.095497369766235352e-01
4.398738592863082886e-02 -1.496946364641189575e-01 -4.136293530464172363e-01
4.522212445735931396e-01 1.104675456881523132e-01 1.588150411844253540e-01
3.305935561656951904e-01 -6.946903467178344727e-01 -3.309531882405281067e-02
7.325779646635055542e-02 -6.946903467178344727e-01 4.693613648414611816e-01
-2.729986310005187988e-01 -5.028631687164306641e-01 -3.262189328670501709e-01
7.418527454137802124e-02 -3.632991611957550049e-01 -4.420711100101470947e-01
1.149401143193244934e-01 4.589608907699584961e-01 4.988133609294891357e-01
-2.259245663881301880e-01 -9.567035734653472900e-02 -3.598210215568542480e-01
-4.542498290538787842e-01 5.696689486503601074e-01 1.394285559654235840e-01
-3.909475505352020264e-01 -6.946903467178344727e-01 -1.529777646064758301e-01
-3.727243542671203613e-01 6.970264911651611328e-01 3.211736381053924561e-01
-1.143816038966178894e-01 -2.901518046855926514e-01 -6.712268590927124023e-01
-1.777960509061813354e-01 -6.946903467178344727e-01 -1.286911517381668091e-01
3.664313554763793945e-01 3.253410458564758301e-01 3.300542235374450684e-01
-3.069664537906646729e-01 8.369599580764770508e-01 3.946820199489593506e-01
-4.619074761867523193e-01 -2.851670682430267334e-01 1.326876599341630936e-02
-1.164399757981300354e-01 -6.946903467178344727e-01 -8.098912239074707031e-02
-1.592459678649902344e-01 -3.787165507674217224e-02 -3.874395489692687988e-01
-1.510923802852630615e-01 3.280440866947174072e-01 4.853422343730926514e-01
4.300895631313323975e-01 -3.078558743000030518e-01 2.185386866331100464e-01
4.413174092769622803e-01 -5.617356300354003906e-01 -9.690576791763305664e-02
-1.425771564245223999e-01 -6.946903467178344727e-01 -4.145633894950151443e-03
3.397481739521026611e-01 -6.946903467178344727e-01 -8.357931673526763916e-02
-3.486704826354980469e-01 -1.294792890548706055e-01 -2.579922676086425781e-01
3.632972240447998047e-01 -6.946903467178344727e-01 1.992625296115875244e-01
4.377657175064086914e-01 -3.959131836891174316e-01 2.000064253807067871e-01
-4.618484377861022949e-01 2.951288819313049316e-01 8.170514553785324097e-02
1.411840319633483887e-01 -4.092456400394439697e-01 4.896675348281860352e-01
2.404218465089797974e-01 -1.451749354600906372e-01 4.461504518985748291e-01
-4.540120959281921387e-01 -3.071149289608001709e-01 -4.670906811952590942e-02
-4.651551246643066406e-01 7.066047191619873047e-01 3.793984279036521912e-02
-1.751534827053546906e-02 -3.725735843181610107e-01 -4.356048107147216797e-01
-3.685084879398345947e-01 5.688952654600143433e-02 3.266676664352416992e-01
9.293375164270401001e-02 -2.104489207267761230e-01 -4.071851968765258789e-01
-4.655947089195251465e-01 -2.258610129356384277e-01 5.324615165591239929e-02
6.697537750005722046e-02 -3.386117517948150635e-01 -5.866274833679199219e-01
-3.311902284622192383e-01 -4.809348881244659424e-01 3.752997219562530518e-01
2.852131724357604980e-01 4.773894250392913818e-01 4.117783010005950928e-01
-2.650583684444427490e-01 1.642716079950332642e-01 4.268377721309661865e-01
-4.712025076150894165e-02 -6.946903467178344727e-01 -2.374450862407684326e-01
-4.190146923065185547e-01 4.156199097633361816e-01 -1.494912952184677124e-01
3.051234185695648193e-01 -6.556350588798522949e-01 3.964995443820953369e-01
-4.524931684136390686e-02 1.211710125207901001e-01 5.079184770584106445e-01
-2.158975899219512939e-01 4.506788551807403564e-01 4.584996998310089111e-01
3.313913643360137939e-01 1.948339492082595825e-01 3.757187426090240479e-01
-3.880693912506103516e-01 -5.665676593780517578e-01 -2.066487520933151245e-01
-1.326291412115097046e-01 4.660800099372863770e-01 4.929898083209991455e-01
2.455719560384750366e-01 -4.216484725475311279e-01 -3.476725816726684570e-01
4.496149718761444092e-01 -5.054773092269897461e-01 -7.687364518642425537e-02
-6.971041113138198853e-02 -6.946903467178344727e-01 2.592708170413970947e-01
-4.178573489189147949e-01 2.864620089530944824e-02 -1.522854715585708618e-01
-3.466862142086029053e-01 3.826772570610046387e-01 3.551057875156402588e-01
-2.315804958343505859e-01 -6.946903467178344727e-01 -1.463533788919448853e-01
-2.821221351623535156e-01 4.284901022911071777e-01 4.137448668479919434e-01
1.021379008889198303e-01 -6.946903467178344727e-01 1.534309238195419312e-01
-3.449692726135253906e-01 5.886368751525878906e-01 3.573432862758636475e-01
4.589155912399291992e-01 -5.170566439628601074e-01 -1.346477586776018143e-02
-4.559857845306396484e-01 -4.239508211612701416e-01 -3.171574696898460388e-02
2.038300484418869019e-01 -5.712620019912719727e-01 4.637193381786346436e-01
-6.013641133904457092e-02 -2.238826751708984375e-01 5.059584975242614746e-01
-1.733541339635848999e-01 1.721645593643188477e-01 4.761213362216949463e-01
-2.015367522835731506e-02 4.055123627185821533e-01 5.112225413322448730e-01
-2.481690496206283569e-01 -2.539802491664886475e-01 -3.452710807323455811e-01
-2.942079901695251465e-01 1.714343577623367310e-02 4.044714868068695068e-01
1.070217862725257874e-01 -5.259627103805541992e-01 4.998558759689331055e-01
-2.208436429500579834e-01 1.460366994142532349e-01 -3.619255721569061279e-01
-2.434140592813491821e-01 -6.042563319206237793e-01 -3.489196300506591797e-01
1.528964787721633911e-01 -1.709729582071304321e-01 4.848162531852722168e-01
1.492248177528381348e-01 -6.946903467178344727e-01 3.565687835216522217e-01
2.240766882896423340e-01 -6.946903467178344727e-01 1.588822603225708008e-01
1.210372596979141235e-01 -2.695882618427276611e-01 -4.034851789474487305e-01
-1.715308427810668945e-01 1.864187866449356079e-01 -3.823511004447937012e-01
3.870751261711120605e-01 -3.781536221504211426e-01 3.031510710716247559e-01
-4.596387743949890137e-01 6.918280124664306641e-01 -3.965569194406270981e-03
-2.134846709668636322e-02 5.600290298461914062e-01 5.110652446746826172e-01
-2.783310115337371826e-01 -3.779033124446868896e-01 4.166537821292877197e-01
3.506258726119995117e-01 -6.745533943176269531e-01 3.506521582603454590e-01
-3.957180380821228027e-01 1.036961600184440613e-01 2.912089228630065918e-01
-4.373109340667724609e-01 6.146151423454284668e-01 1.998439729213714600e-01
-4.632007181644439697e-01 -5.875928401947021484e-01 7.143238931894302368e-02
-3.923155665397644043e-01 -9.151384234428405762e-02 2.956430017948150635e-01
-8.751127123832702637e-02 -5.957109108567237854e-02 5.023543238639831543e-01
4.344653710722923279e-02 -3.173144161701202393e-01 -6.372650861740112305e-01
4.136971831321716309e-01 -4.560361802577972412e-01 2.581144273281097412e-01
1.424628347158432007e-01 -6.946903467178344727e-01 -3.861488103866577148e-01
2.880794703960418701e-01 -6.946903467178344727e-01 2.519688606262207031e-01
-4.060547649860382080e-01 6.172565221786499023e-01 2.753085792064666748e-01
-3.614374697208404541e-01 6.526237130165100098e-01 3.358823955059051514e-01
-2.498232871294021606e-01 -6.946903467178344727e-01 -5.974755063652992249e-02
3.197296261787414551e-01 8.608032464981079102e-01 3.843311667442321777e-01
-1.762980818748474121e-01 7.372201979160308838e-02 -3.803764879703521729e-01
-4.329266250133514404e-01 -4.110000431537628174e-01 2.104294300079345703e-01
4.070005714893341064e-01 -5.818962454795837402e-01 -1.797542572021484375e-01
-3.845894634723663330e-01 -1.942219287157058716e-01 3.057114183902740479e-01
-1.433419883251190186e-01 -6.483215093612670898e-01 4.885525405406951904e-01
-3.150315880775451660e-01 -6.946903467178344727e-01 3.770055770874023438e-01
-4.642684757709503174e-01 1.167056038975715637e-01 3.120442107319831848e-02
-4.644706249237060547e-01 5.200526118278503418e-01 6.178524717688560486e-02
1.959082484245300293e-01 6.380208730697631836e-01 4.670006036758422852e-01
4.056195318698883057e-01 -5.134559869766235352e-01 -1.830883920192718506e-01
-4.508733749389648438e-01 -4.850525557994842529e-01 1.650780290365219116e-01
-3.427449762821197510e-01 1.378431171178817749e-01 3.602419197559356689e-01
1.876177964732050896e-03 -6.946903467178344727e-01 -2.875004410743713379e-01
-3.144392669200897217e-01 -6.946903467178344727e-01 -8.867850154638290405e-02
-3.990665674209594727e-01 -6.462294459342956543e-01 -1.923174858093261719e-01
4.586015343666076660e-01 -4.340396225452423096e-01 1.103745400905609131e-01
-4.190355539321899414e-01 -5.955097824335098267e-02 2.439678460359573364e-01
4.627188146114349365e-01 -1.199558526277542114e-01 7.911521941423416138e-02
-2.001980841159820557e-01 -1.871939189732074738e-02 -3.704770505428314209e-01
-4.527019560337066650e-01 -6.260802745819091797e-01 1.511870771646499634e-01
-3.405211269855499268e-01 5.084328055381774902e-01 -2.686122655868530273e-01
3.196880519390106201e-01 -2.765094935894012451e-01 -2.907953560352325439e-01
2.057778090238571167e-01 -6.946903467178344727e-01 4.189613163471221924e-01
2.218671739101409912e-01 5.112171769142150879e-01 4.562483429908752441e-01
-2.893962860107421875e-01 4.838518798351287842e-01 4.081634879112243652e-01
2.602207958698272705e-01 -2.830088734626770020e-01 4.309570789337158203e-01
3.570349514484405518e-01 -2.010185867547988892e-01 -2.477720379829406738e-01
-3.137345910072326660e-01 3.759266734123229980e-01 -2.949615418910980225e-01
-1.604736894369125366e-01 -3.936986625194549561e-01 -3.869310319423675537e-01
-3.829711675643920898e-01 8.236490488052368164e-01 -2.132925689220428467e-01
-3.872087597846984863e-01 4.202264547348022461e-01 -2.077702432870864868e-01
-4.606221020221710205e-01 1.072840094566345215e-01 9.102102369070053101e-02
3.962468802928924561e-01 1.994300037622451782e-01 2.911983430385589600e-01
4.718143865466117859e-02 1.260712742805480957e-01 5.077342391014099121e-01
-1.678110212087631226e-01 3.749817609786987305e-01 4.784173667430877686e-01
-4.202555418014526367e-01 6.729864478111267090e-01 2.410223186016082764e-01
4.410429596900939941e-01 -3.344151377677917480e-01 -9.756831824779510498e-02
-1.802585870027542114e-01 -6.946903467178344727e-01 -2.383757531642913818e-01
-6.275266408920288086e-02 -3.606126308441162109e-01 -5.271265506744384766e-01
-8.891329169273376465e-02 -6.946903467178344727e-01 4.681300222873687744e-01
1.189431175589561462e-01 6.232139468193054199e-01 4.982863664627075195e-01
3.528916044160723686e-03 -6.196315288543701172e-01 -4.189559817314147949e-01
3.633992969989776611e-01 -7.040774077177047729e-02 3.340056538581848145e-01
-2.004914581775665283e-01 7.927457690238952637e-01 4.648809731006622314e-01
-5.590750277042388916e-02 -1.093566417694091797e-01 -8.228566646575927734e-01
4.219187796115875244e-02 2.194558084011077881e-01 5.083911418914794922e-01
4.471430778503417969e-01 1.598398536443710327e-01 1.773668676614761353e-01
-3.652360141277313232e-01 -4.731553792953491211e-01 3.309322595596313477e-01
2.985944747924804688e-01 -6.946903467178344727e-01 1.992968767881393433e-01
-4.269678592681884766e-01 2.532931230962276459e-02 2.248162031173706055e-01
-4.260817468166351318e-01 5.826930999755859375e-01 2.269556224346160889e-01
-4.354378879070281982e-01 8.198415040969848633e-01 -1.098400577902793884e-01
2.628377377986907959e-01 -1.830396950244903564e-01 -3.344227373600006104e-01
4.353873729705810547e-01 -8.781700581312179565e-02 2.057484239339828491e-01
-4.659844040870666504e-01 1.681413650512695312e-01 5.028577893972396851e-02
1.716119349002838135e-01 6.961665749549865723e-01 4.770642518997192383e-01
-4.633739590644836426e-01 -1.792562007904052734e-01 7.011634111404418945e-02
-3.932108581066131592e-01 -3.686760067939758301e-01 2.944762706756591797e-01
-3.855344653129577637e-01 -2.056762278079986572e-01 -2.099521905183792114e-01
-8.416147530078887939e-02 -6.946903467178344727e-01 3.747273236513137817e-02
4.009051322937011719e-01 -3.036186397075653076e-01 2.851276397705078125e-01
4.649369418621063232e-01 -6.003225222229957581e-02 6.227470934391021729e-02
-3.771283030509948730e-01 5.741276144981384277e-01 -2.209068387746810913e-01
-3.734126091003417969e-01 -5.164399147033691406e-01 -2.257490456104278564e-01
-1.323171854019165039e-01 -6.946903467178344727e-01 -2.966506481170654297e-01
-3.887935876846313477e-01 7.586044073104858398e-02 -2.057049721479415894e-01
-9.386404603719711304e-02 -6.946903467178344727e-01 -1.390733718872070312e-01
-7.939960807561874390e-02 -6.582822203636169434e-01 -4.088968634605407715e-01
-2.289646863937377930e-01 3.184802830219268799e-01 4.530873000621795654e-01
4.447049275040626526e-02 -2.566499412059783936e-01 -7.163277268409729004e-01
4.539943039417266846e-01 -5.272458866238594055e-02 1.453536152839660645e-01
-2.541396617889404297e-01 2.630260586738586426e-01 4.352156817913055420e-01
2.735068276524543762e-02 -2.456701546907424927e-01 -4.158196747303009033e-01
4.010488092899322510e-01 -6.946903467178344727e-01 -8.550146222114562988e-02
-4.101588428020477295e-01 -4.044103324413299561e-01 -1.708722859621047974e-01
4.113191366195678711e-01 -6.428487300872802734e-01 2.638556957244873047e-01
-1.505204588174819946e-01 3.326468169689178467e-02 -3.910536766052246094e-01
-1.248106211423873901e-01 -2.899975180625915527e-01 -4.017027914524078369e-01
-1.564651429653167725e-01 -6.946903467178344727e-01 3.077635467052459717e-01
-4.250010550022125244e-01 -2.347074896097183228e-01 -1.350381225347518921e-01
-1.131089329719543457e-01 -6.946903467178344727e-01 -1.991640180349349976e-01
-1.873755156993865967e-01 5.717553496360778809e-01 4.703136384487152100e-01
4.667882323265075684e-01 -5.137539505958557129e-01 4.821913316845893860e-02
3.663448691368103027e-01 -6.946903467178344727e-01 -1.725717484951019287e-01
3.703868985176086426e-01 -4.608090519905090332e-01 -2.303716093301773071e-01
2.854623198509216309e-01 1.315798610448837280e-01 4.115870893001556396e-01
4.139449894428253174e-01 -2.817901968955993652e-01 -1.629888415336608887e-01
-4.087680578231811523e-01 8.608032464981079102e-01 -1.491366773843765259e-01
-3.871605694293975830e-01 -1.344586014747619629e-01 3.023608028888702393e-01
4.265514910221099854e-01 -4.787509143352508545e-01 -1.325540095567703247e-01
-4.162146449089050293e-01 -8.375280350446701050e-02 -1.562515348196029663e-01
-4.008996859192848206e-02 -6.946903467178344727e-01 3.328317403793334961e-01
-4.183118343353271484e-01 -5.737989544868469238e-01 2.457151859998703003e-01
-2.469534724950790405e-01 7.086216807365417480e-01 4.407295286655426025e-01
-4.516114592552185059e-01 4.183473289012908936e-01 1.594713777303695679e-01
4.325799942016601562e-01 -6.936414837837219238e-01 2.125261723995208740e-01
1.329189985990524292e-01 1.657273918390274048e-01 4.930910170078277588e-01
4.651528000831604004e-01 1.101029105484485626e-02 6.063561514019966125e-02
3.701990842819213867e-01 5.058368444442749023e-01 3.251441121101379395e-01
-4.637621939182281494e-01 -1.154917404055595398e-01 6.716700643301010132e-02
1.108366176486015320e-01 4.025389850139617920e-01 4.993536174297332764e-01
-4.618969857692718506e-01 8.548539876937866211e-01 1.318918820470571518e-02
-4.014533162117004395e-01 5.005702376365661621e-01 -1.892071515321731567e-01
6.243114918470382690e-02 -6.946903467178344727e-01 -6.289682537317276001e-02
2.153929322957992554e-01 -2.371856383979320526e-02 4.589300155639648438e-01
-1.086302753537893295e-02 -4.554029554128646851e-02 5.124457478523254395e-01
-4.043162465095520020e-01 5.112442374229431152e-01 2.795060873031616211e-01
-3.237146139144897461e-01 -5.985383987426757812e-01 3.818312883377075195e-01
2.684621214866638184e-01 -6.946903467178344727e-01 -2.683385834097862244e-02
-3.259409964084625244e-01 4.705224931240081787e-01 3.801229894161224365e-01
2.247325628995895386e-01 3.695805668830871582e-01 4.550614655017852783e-01
-1.488318145275115967e-01 -2.222114354372024536e-01 -3.917531371116638184e-01
7.633306086063385010e-02 -2.641288638114929199e-01 5.038962364196777344e-01
3.852659463882446289e-01 -1.612695902585983276e-01 3.055087924003601074e-01
6.063968688249588013e-02 -6.946903467178344727e-01 -2.309256643056869507e-01
8.737167716026306152e-02 -6.423046588897705078e-01 -4.079174697399139404e-01
-1.920318752527236938e-01 1.303466111421585083e-01 4.683849513530731201e-01
-4.313706457614898682e-01 1.338111758232116699e-01 -1.196597740054130554e-01
-1.829569926485419273e-03 -6.946903467178344727e-01 -4.183793962001800537e-01
-1.997904330492019653e-01 -3.389689028263092041e-01 4.651713371276855469e-01
4.635807871818542480e-01 -1.895045191049575806e-01 2.195448614656925201e-02
5.110139027237892151e-02 -3.009063899517059326e-01 -4.126926958560943604e-01
-3.850381076335906982e-01 2.232829034328460693e-01 -2.105990350246429443e-01
1.360069680958986282e-02 -7.834372669458389282e-02 5.121553540229797363e-01
-1.154242008924484253e-01 -3.767341971397399902e-01 4.986793398857116699e-01
-4.659413099288940430e-01 -5.397350788116455078e-01 4.391236975789070129e-02
-2.659205794334411621e-01 -6.946903467178344727e-01 3.670069277286529541e-01
3.934850096702575684e-01 -6.920434832572937012e-01 2.947976291179656982e-01
-2.967323362827301025e-01 -4.179911613464355469e-01 -3.080076575279235840e-01
-3.714616969227790833e-02 -3.651355206966400146e-01 5.089853405952453613e-01
1.651191562414169312e-01 5.189678072929382324e-01 4.797535836696624756e-01
-3.580434024333953857e-01 -6.946903467178344727e-01 2.505686581134796143e-01
2.352871000766754150e-01 -6.822562813758850098e-01 -3.555653095245361328e-01
-4.635588228702545166e-01 8.293542265892028809e-01 6.871208548545837402e-02
-8.167038857936859131e-02 -5.530127882957458496e-01 -4.085978567600250244e-01
-4.541864693164825439e-01 -4.199022948741912842e-01 1.399099230766296387e-01
4.206515252590179443e-01 -3.754836022853851318e-01 2.413248270750045776e-01
1.824870519340038300e-02 -6.946903467178344727e-01 2.356518991291522980e-02
4.033766388893127441e-01 -1.943227797746658325e-01 -1.873790323734283447e-01
-4.626128971576690674e-01 7.666391730308532715e-01 7.589776068925857544e-02
-3.544388413429260254e-01 -3.404623270034790039e-01 -2.504751086235046387e-01
-3.780792653560638428e-02 -1.871114596724510193e-02 -4.143727719783782959e-01
4.518896341323852539e-01 -5.883330106735229492e-01 1.613327562808990479e-01
-3.538166582584381104e-01 7.318912446498870850e-02 -2.512859404087066650e-01
2.928001880645751953e-01 -5.548848509788513184e-01 4.059561192989349365e-01
4.243163466453552246e-01 -5.755366086959838867e-01 -1.379501223564147949e-01
-3.321126103401184082e-02 -1.872720271348953247e-01 -7.761880159378051758e-01
1.525420695543289185e-01 -6.946903467178344727e-01 -2.063508778810501099e-01
-5.703274905681610107e-02 -6.946903467178344727e-01 -2.599206753075122833e-03
-3.701076209545135498e-01 -5.496478080749511719e-01 3.245837092399597168e-01
-4.118400812149047852e-01 -6.946903467178344727e-01 -8.207506686449050903e-02
2.389688193798065186e-01 8.608032464981079102e-01 4.318534731864929199e-01
1.160939112305641174e-01 -3.666019439697265625e-01 -4.390830397605895996e-01
-4.456763267517089844e-01 -6.111270189285278320e-01 -8.512096852064132690e-02
2.379770427942276001e-01 -6.946903467178344727e-01 -1.992099285125732422e-01
-2.386997044086456299e-01 -4.989525675773620605e-01 4.470626115798950195e-01
3.003018200397491455e-01 2.628031075000762939e-01 4.001995027065277100e-01
-2.661314010620117188e-01 -8.308475464582443237e-02 4.260144829750061035e-01
2.939315438270568848e-01 -2.887117564678192139e-01 4.050879776477813721e-01
3.984273970127105713e-02 -6.946903467178344727e-01 1.566822230815887451e-01
4.177203476428985596e-01 -1.003336757421493530e-01 2.484014332294464111e-01
8.789005130529403687e-02 -6.946903467178344727e-01 -2.997502088546752930e-01
2.982942759990692139e-01 -2.413018941879272461e-01 -3.072130978107452393e-01
-5.888226628303527832e-02 8.344802260398864746e-01 5.061236023902893066e-01
1.707861721515655518e-01 -6.946903467178344727e-01 -5.163660272955894470e-02
1.218228563666343689e-01 3.245008289813995361e-01 4.976870715618133545e-01
-4.605442881584167480e-01 -1.227485910058021545e-01 2.913367701694369316e-03
-4.627160131931304932e-01 6.859056949615478516e-01 7.511441409587860107e-02
3.299384117126464844e-01 -4.944017231464385986e-01 3.774569034576416016e-01
2.486719191074371338e-01 -5.301012992858886719e-01 -3.452936708927154541e-01
3.590773344039916992e-01 -5.435655117034912109e-01 3.396380841732025146e-01
-3.703514039516448975e-01 4.926793277263641357e-01 -2.297382950782775879e-01
1.471719741821289062e-01 -2.153884619474411011e-01 4.871873557567596436e-01
2.910120487213134766e-01 1.846715211868286133e-01 4.073283672332763672e-01
-4.576296731829643250e-02 -5.117234587669372559e-01 5.078508853912353516e-01
-4.564962685108184814e-01 -5.539328455924987793e-01 1.223633512854576111e-01
-3.059627413749694824e-01 -2.369885295629501343e-01 3.954521417617797852e-01
1.521869562566280365e-02 -4.452008306980133057e-01 5.119423866271972656e-01
-1.869698911905288696e-01 -6.946903467178344727e-01 1.170824170112609863e-01
2.368122786283493042e-01 1.922561079263687134e-01 4.489203691482543945e-01
-4.522125720977783203e-01 3.607350885868072510e-01 1.549048274755477905e-01
7.987820357084274292e-02 -5.979394316673278809e-01 -4.089040756225585938e-01
2.663480341434478760e-01 -6.946903467178344727e-01 3.668150305747985840e-01
3.288950622081756592e-01 6.403189897537231445e-02 3.782575130462646484e-01
4.594722092151641846e-01 -3.503751158714294434e-01 1.037643030285835266e-01
3.186072707176208496e-01 -4.594464600086212158e-01 -2.916247844696044922e-01
-5.105728656053543091e-02 2.328640669584274292e-01 5.071538090705871582e-01
4.719381034374237061e-02 3.357664346694946289e-01 5.077326297760009766e-01
1.291089504957199097e-02 -6.658935546875000000e-01 5.122461915016174316e-01
-4.651954472064971924e-01 7.530721426010131836e-01 3.824613243341445923e-02
-1.462600231170654297e-01 7.275583595037460327e-02 4.873438179492950439e-01
-4.577619433403015137e-01 -6.335467696189880371e-01 1.127484589815139771e-01
-7.964002341032028198e-02 6.045906543731689453e-01 5.033906698226928711e-01
1.065100505948066711e-01 -3.059723973274230957e-01 -4.053977727890014648e-01
4.520771205425262451e-01 -5.824450850486755371e-01 -6.538388878107070923e-02
-4.519159495830535889e-01 -5.202253907918930054e-02 -6.263257563114166260e-02
4.138249456882476807e-01 1.231026053428649902e-01 2.578060030937194824e-01
1.702782139182090759e-02 -3.710733652114868164e-01 -4.844559431076049805e-01
-4.127086102962493896e-01 -5.463332533836364746e-01 -1.647162586450576782e-01
-7.678841799497604370e-02 -6.192263960838317871e-01 -4.092406034469604492e-01
-4.356365799903869629e-01 6.276263296604156494e-02 2.038864791393280029e-01
-3.642967343330383301e-01 7.850629687309265137e-01 -2.376285642385482788e-01
2.279194891452789307e-01 5.642624497413635254e-01 4.537414610385894775e-01
-1.363525390625000000e-01 -6.946903467178344727e-01 1.094409599900245667e-01
-1.361340880393981934e-01 -6.906805634498596191e-01 4.915380179882049561e-01
-4.290646910667419434e-01 -4.719122648239135742e-01 2.197536528110504150e-01
2.247692197561264038e-01 -3.397072553634643555e-01 4.550462961196899414e-01
-4.339151084423065186e-01 6.887298226356506348e-01 2.080428153276443481e-01
-4.577797353267669678e-01 -5.988692641258239746e-01 -1.808767020702362061e-02
-4.138890802860260010e-01 -3.524958491325378418e-01 2.563934922218322754e-01
-3.593374788761138916e-01 2.925961613655090332e-01 -2.440913468599319458e-01
-4.589282572269439697e-01 -4.225685447454452515e-02 1.038882657885551453e-01
-2.405837923288345337e-01 -6.946903467178344727e-01 4.152693152427673340e-01
-4.556911587715148926e-01 3.256299495697021484e-01 -3.395385667681694031e-02
5.205854400992393494e-02 -6.946903467178344727e-01 -1.396421343088150024e-01
-1.949152350425720215e-02 8.237003087997436523e-01 5.113097429275512695e-01
3.742379248142242432e-01 1.140548288822174072e-01 3.198806345462799072e-01
-4.417604804039001465e-01 -1.552313119173049927e-01 -9.457513689994812012e-02
-6.864605844020843506e-02 -6.946903467178344727e-01 -3.093017041683197021e-01
-4.089152216911315918e-01 7.087116241455078125e-01 2.684023082256317139e-01
-7.997652143239974976e-02 2.640741467475891113e-01 5.033463239669799805e-01
-3.224944472312927246e-01 6.103772521018981934e-01 3.827674984931945801e-01
2.323437035083770752e-01 6.465091109275817871e-01 4.519089162349700928e-01
-4.655210077762603760e-01 4.009186625480651855e-01 5.380610004067420959e-02
-4.603466019034385681e-02 3.614162653684616089e-02 5.078151226043701172e-01
-1.232320889830589294e-01 5.616627335548400879e-01 4.968820810317993164e-01
-2.649966478347778320e-01 -2.637363411486148834e-02 -3.323589563369750977e-01
1.198122352361679077e-01 -3.401350975036621094e-01 -5.838420987129211426e-01
-4.656003117561340332e-01 6.175907254219055176e-01 5.320363491773605347e-02
2.508552074432373047e-01 -6.946903467178344727e-01 2.382097691297531128e-01
-4.481786191463470459e-01 -5.218590497970581055e-01 -7.907952368259429932e-02
-3.613657653331756592e-01 -2.753226459026336670e-01 -2.414481341838836670e-01
-8.676481992006301880e-02 7.482986450195312500e-01 5.024526119232177734e-01
-3.544898331165313721e-01 6.339762210845947266e-01 -2.504086196422576904e-01
-4.050527811050415039e-01 7.378077507019042969e-01 -1.832000613212585449e-01
-3.297139406204223633e-01 -6.946903467178344727e-01 1.622926145792007446e-01
-3.277085125446319580e-01 -5.453727021813392639e-02 -2.842391133308410645e-01
-7.866626977920532227e-02 -5.475618243217468262e-01 5.035188198089599609e-01
-2.835025787353515625e-01 3.377673029899597168e-01 4.126856923103332520e-01
-3.882048130035400391e-01 -4.850762430578470230e-03 3.009999990463256836e-01
3.877152204513549805e-01 1.241169031709432602e-02 3.023168742656707764e-01
-4.609744250774383545e-01 3.380910754203796387e-01 8.834446966648101807e-02
-3.975494503974914551e-01 3.462971746921539307e-01 2.888222932815551758e-01
2.290049642324447632e-01 6.870043277740478516e-01 4.532918334007263184e-01
3.760474026203155518e-01 -2.137046754360198975e-01 3.175224959850311279e-01
-1.940736770629882812e-01 -4.057090282440185547e-01 -3.730137944221496582e-01
1.667419970035552979e-01 5.893950462341308594e-01 4.790813922882080078e-01
2.503449618816375732e-01 -5.700057744979858398e-01 -3.440097868442535400e-01
4.558859765529632568e-01 -1.831974983215332031e-01 1.309917271137237549e-01
-4.118971228599548340e-01 3.326041400432586670e-01 -1.666754633188247681e-01
1.424508839845657349e-01 -6.540982723236083984e-01 4.891428351402282715e-01
-2.925863564014434814e-01 -6.946903467178344727e-01 -4.950212780386209488e-03
-4.240514338016510010e-01 -6.744344234466552734e-01 2.318576276302337646e-01
-3.493683338165283203e-01 -5.519878864288330078e-01 -2.570828199386596680e-01
-4.540258944034576416e-01 -2.741989791393280029e-01 1.411296129226684570e-01
-2.466882467269897461e-01 -4.439463615417480469e-01 4.409330785274505615e-01
-3.839066326618194580e-01 4.246906638145446777e-01 3.066012263298034668e-01
-4.078364968299865723e-01 6.193549633026123047e-01 -1.764792054891586304e-01
2.900062799453735352e-01 4.590339958667755127e-02 4.081001877784729004e-01
-2.214095555245876312e-02 6.477231383323669434e-01 5.109609365463256836e-01
-4.373104572296142578e-01 7.436126470565795898e-01 1.998451501131057739e-01
-4.331814944744110107e-01 -6.390063166618347168e-01 -1.152878031134605408e-01
4.653132855892181396e-01 -3.086203932762145996e-01 3.510802611708641052e-02
-2.547332346439361572e-01 5.891949310898780823e-02 -3.402342498302459717e-01
3.857637643814086914e-01 -6.529264450073242188e-01 -2.103323340415954590e-01
