9.069684892892837524e-02 -5.045906901359558105e-01 8.040276914834976196e-02
4.447073340415954590e-01 -3.057662248611450195e-01 -1.096982955932617188e-01
6.709763407707214355e-02 5.127540230751037598e-01 5.520245432853698730e-01
3.697879612445831299e-01 5.879421234130859375e-01 -4.043812453746795654e-01
-4.738448932766914368e-02 -5.120612978935241699e-01 2.021722346544265747e-01
4.680784642696380615e-01 3.265404999256134033e-01 4.067165032029151917e-02
1.681144386529922485e-01 -2.878932654857635498e-02 4.819735288619995117e-01
4.983687400817871094e-01 4.791697263717651367e-01 -2.500805556774139404e-01
-5.660597085952758789e-01 -4.596221745014190674e-01 3.772865533828735352e-01
4.724707603454589844e-01 4.913741052150726318e-01 -6.479214876890182495e-02
-4.453344941139221191e-01 4.633442759513854980e-01 1.683619171380996704e-01
-4.777967035770416260e-01 5.526846647262573242e-01 -3.747902577742934227e-03
5.152943134307861328e-01 3.332698047161102295e-01 -1.934477388858795166e-01
-4.630520343780517578e-01 -1.844076067209243774e-01 3.084566891193389893e-01
-4.670673310756683350e-01 3.231979012489318848e-01 -4.947440326213836670e-02
4.397135674953460693e-01 1.670717000961303711e-01 1.188458949327468872e-01
-4.538799822330474854e-01 5.973066687583923340e-01 2.082470059394836426e-01
2.769559919834136963e-01 7.035356014966964722e-02 3.464595973491668701e-01
2.039192765951156616e-01 -4.347677528858184814e-01 -1.118228510022163391e-01
1.409039050340652466e-01 -3.352506458759307861e-01 3.402546942234039307e-01
2.362091392278671265e-01 -2.137184888124465942e-01 -3.189009130001068115e-01
5.202982425689697266e-01 5.350721478462219238e-01 1.990257203578948975e-01
3.224701583385467529e-01 6.577300280332565308e-02 3.039070367813110352e-01
6.709520816802978516e-01 -3.099817633628845215e-01 3.300066888332366943e-01
-2.308220565319061279e-01 -1.286740750074386597e-01 3.423352241516113281e-01
2.520903944969177246e-01 -2.603150717914104462e-02 3.480103015899658203e-01
5.294818282127380371e-01 5.968130826950073242e-01 -9.073884040117263794e-02
3.235558271408081055e-01 -3.386873379349708557e-02 -3.950881958007812500e-01
5.020146369934082031e-01 -3.375097811222076416e-01 2.466932833194732666e-01
2.467039078474044800e-01 -1.818916648626327515e-01 3.172189295291900635e-01
-4.688659012317657471e-01 3.950133025646209717e-01 6.535255163908004761e-02
-3.969764709472656250e-01 4.142757356166839600e-01 -5.359911918640136719e-02
4.897802174091339111e-01 -1.236385256052017212e-01 -6.935971230268478394e-02
4.105006456375122070e-01 -3.210053965449333191e-02 1.256355494260787964e-01
2.398155778646469116e-01 -4.419859647750854492e-01 1.621401458978652954e-01
3.798290491104125977e-01 -4.996852278709411621e-01 -1.530822813510894775e-01
1.193556860089302063e-01 4.142757356166839600e-01 -1.269165128469467163e-01
1.712315976619720459e-01 -5.384100675582885742e-01 3.552363514900207520e-01
-4.500242769718170166e-01 3.427735269069671631e-01 -1.398800015449523926e-01
1.659553050994873047e-01 2.895097732543945312e-01 -4.375730156898498535e-01
-4.076713621616363525e-01 4.309099018573760986e-01 3.759413063526153564e-01
-5.101969093084335327e-02 -6.010894849896430969e-02 4.207886457443237305e-01
-2.091383039951324463e-01 1.741808056831359863e-01 -4.073614180088043213e-01
3.325259983539581299e-01 -5.000908672809600830e-02 2.660697698593139648e-01
5.546113848686218262e-01 4.299388825893402100e-01 -4.561425652354955673e-03
3.961581885814666748e-01 1.303298026323318481e-01 2.162337005138397217e-01
-6.459926366806030273e-01 -4.373479187488555908e-01 4.123286902904510498e-01
3.484714329242706299e-01 3.229181468486785889e-01 -3.161002099514007568e-01
1.720237880945205688e-01 4.142757356166839600e-01 2.081130072474479675e-02
1.589412540197372437e-01 5.353311300277709961e-01 -4.520017802715301514e-01
-1.144438162446022034e-01 8.125510066747665405e-02 4.298695027828216553e-01
1.319179832935333252e-01 -4.335557818412780762e-01 1.761159300804138184e-01
4.755302146077156067e-02 1.874443143606185913e-01 -5.373494625091552734e-01
2.567525804042816162e-01 5.995212793350219727e-01 -4.582574069499969482e-01
6.424479484558105469e-01 -6.342377066612243652e-01 3.172429502010345459e-01
1.919828355312347412e-01 9.971798956394195557e-02 4.913027286529541016e-01
4.189552962779998779e-01 4.004739224910736084e-01 2.207618206739425659e-01
3.579922616481781006e-01 -7.331461459398269653e-02 -2.258843332529067993e-01
2.886637151241302490e-01 -1.878690123558044434e-01 3.858190178871154785e-01
1.453530937433242798e-01 -5.063974261283874512e-01 1.432804577052593231e-02
3.411348760128021240e-01 -3.563711345195770264e-01 1.268696337938308716e-01
4.614185988903045654e-01 -6.232025846838951111e-02 3.068726062774658203e-01
-2.462076693773269653e-01 4.142757356166839600e-01 -1.066229771822690964e-02
1.873655915260314941e-01 -2.118535488843917847e-01 3.487205207347869873e-01
1.033824402838945389e-02 3.093336522579193115e-01 -5.491853356361389160e-01
3.955415487289428711e-01 -1.167725026607513428e-01 -2.998110949993133545e-01
-4.580374360084533691e-01 2.570758461952209473e-01 -8.037051558494567871e-02
-4.489642977714538574e-01 2.838926613330841064e-01 1.262623220682144165e-01
1.902319788932800293e-01 5.082010030746459961e-01 4.367867708206176758e-01
-5.040085315704345703e-01 4.006067663431167603e-02 1.294330656528472900e-01
2.959513664245605469e-01 1.803385317325592041e-01 3.482368588447570801e-01
4.368064105510711670e-01 -2.603513896465301514e-01 2.909985780715942383e-01
-2.311975061893463135e-01 3.860449492931365967e-01 -5.034544467926025391e-01
6.642469167709350586e-01 -4.505702555179595947e-01 3.852329552173614502e-01
6.350410729646682739e-02 4.142757356166839600e-01 -1.432179063558578491e-01
2.821738719940185547e-01 -3.438049256801605225e-01 2.343674749135971069e-01
6.117404103279113770e-01 -2.072171419858932495e-01 3.008037805557250977e-01
-3.911396563053131104e-01 5.995212793350219727e-01 3.293080031871795654e-01
5.266414284706115723e-01 4.137989878654479980e-01 1.742549538612365723e-01
5.167860984802246094e-01 1.659153699874877930e-01 -1.420456320047378540e-01
-5.512734055519104004e-01 3.552663028240203857e-01 -1.176210585981607437e-02
5.851061344146728516e-01 -4.839640557765960693e-01 3.900957107543945312e-01
-6.833090782165527344e-01 -9.805538505315780640e-02 3.392241895198822021e-01
-3.687652945518493652e-01 2.326177358627319336e-01 -2.797319889068603516e-01
-1.918741166591644287e-01 3.640666007995605469e-01 -4.322276413440704346e-01
2.575352601706981659e-02 4.680921435356140137e-01 -5.569161176681518555e-01
-1.714838445186614990e-01 1.434415280818939209e-01 5.053316354751586914e-01
4.197638034820556641e-01 9.975045919418334961e-02 -1.580537557601928711e-01
4.920231997966766357e-01 6.757906824350357056e-02 -1.827907413244247437e-01
-2.925889790058135986e-01 4.142757356166839600e-01 1.394597440958023071e-01
4.433000385761260986e-01 1.602220386266708374e-01 3.003779649734497070e-01
4.339255765080451965e-02 4.090639576315879822e-02 4.373970329761505127e-01
-1.461220830678939819e-01 -5.248433351516723633e-01 2.739914655685424805e-01
-3.940309882164001465e-01 1.024114713072776794e-01 2.133637517690658569e-01
-1.762817949056625366e-01 -4.027027487754821777e-01 3.965856134891510010e-01
4.768059551715850830e-01 -3.087468678131699562e-03 1.918626129627227783e-01
-4.521387219429016113e-01 1.915991753339767456e-01 -7.903482764959335327e-02
-3.761483132839202881e-01 4.142757356166839600e-01 2.112736999988555908e-01
-3.344154059886932373e-01 1.613790690898895264e-01 4.172379672527313232e-01
-3.623590469360351562e-01 4.142757356166839600e-01 9.439209848642349243e-02
-1.000439003109931946e-01 4.142757356166839600e-01 1.382181793451309204e-01
3.677681386470794678e-01 -2.641395330429077148e-01 -2.886233329772949219e-01
-1.991308927536010742e-01 2.161571234464645386e-01 -5.037282705307006836e-01
-5.261784195899963379e-01 -4.258135333657264709e-02 2.713001370429992676e-01
1.495981216430664062e-01 -4.277998208999633789e-01 -6.133976578712463379e-02
2.440748214721679688e-01 2.812397181987762451e-01 -4.906735718250274658e-01
3.676290214061737061e-01 -5.339314937591552734e-01 2.368173897266387939e-01
5.925848484039306641e-01 -5.348462611436843872e-02 3.871386945247650146e-01
1.438748240470886230e-01 4.142757356166839600e-01 2.758095860481262207e-01
3.266873061656951904e-01 3.667243123054504395e-01 -4.456923902034759521e-01
-1.523064821958541870e-01 5.995212793350219727e-01 -5.109491348266601562e-01
-4.874866306781768799e-01 2.710804045200347900e-01 2.456825226545333862e-01
4.313604235649108887e-01 -4.156814515590667725e-01 -2.287142537534236908e-02
-4.442256987094879150e-01 4.929171800613403320e-01 -3.362568616867065430e-01
5.482689738273620605e-01 -4.478743076324462891e-01 2.694987058639526367e-01
4.561706483364105225e-01 -2.347819805145263672e-01 1.243645921349525452e-01
4.171585142612457275e-01 4.142757356166839600e-01 6.221699714660644531e-02
-1.851999312639236450e-01 5.591843128204345703e-01 4.395546019077301025e-01
-1.120239719748497009e-01 -9.293311834335327148e-02 4.867962598800659180e-01
5.444860458374023438e-01 -2.453283667564392090e-01 3.629550933837890625e-01
2.481897771358489990e-01 -9.694890677928924561e-02 -3.378383815288543701e-01
-1.828655004501342773e-01 9.999679774045944214e-02 4.083164632320404053e-01
2.797690331935882568e-01 -2.052770461887121201e-03 4.316112697124481201e-01
-1.605427265167236328e-01 -8.795729838311672211e-03 4.012241959571838379e-01
3.256161212921142578e-01 -4.491873085498809814e-01 -9.402315318584442139e-02
-3.087908327579498291e-01 5.720695257186889648e-01 -3.663419187068939209e-01
4.204562306404113770e-01 -3.656153678894042969e-01 2.800779640674591064e-01
-5.359551310539245605e-02 -3.227506577968597412e-01 3.673400282859802246e-01
4.610522091388702393e-01 2.203505784273147583e-01 -1.122059114277362823e-02
5.316732525825500488e-01 1.648088246583938599e-01 6.392701715230941772e-02
-5.404589176177978516e-01 5.668135285377502441e-01 -1.380931735038757324e-01
-5.350868105888366699e-01 3.091874122619628906e-01 1.206521913409233093e-01
-5.573997497558593750e-01 5.466523170471191406e-01 -2.374148368835449219e-02
-3.966364264488220215e-01 4.317750036716461182e-01 -2.640810608863830566e-01
-1.045638024806976318e-01 4.142757356166839600e-01 7.577200978994369507e-02
-2.506363093852996826e-01 4.964590072631835938e-01 -4.069546759128570557e-01
4.886896908283233643e-01 1.272902637720108032e-01 2.082106024026870728e-01
-3.467745780944824219e-01 -4.501382634043693542e-02 3.707048296928405762e-01
3.624393343925476074e-01 -1.508623659610748291e-01 -1.901907026767730713e-01
-1.364191621541976929e-02 2.204503417015075684e-01 5.402112603187561035e-01
1.769094616174697876e-01 -5.097473263740539551e-01 -5.472121015191078186e-02
-1.054342463612556458e-01 4.142757356166839600e-01 -5.457180738449096680e-02
4.069959223270416260e-01 2.036709189414978027e-01 3.549317121505737305e-01
3.870112001895904541e-01 -1.524581462144851685e-01 1.314787864685058594e-01
4.153079390525817871e-01 5.089305043220520020e-01 2.340695708990097046e-01
9.094737470149993896e-02 4.142757356166839600e-01 -4.357346892356872559e-02
8.627507090568542480e-02 -2.853447496891021729e-01 3.700927495956420898e-01
-9.084753692150115967e-02 1.020646560937166214e-02 4.259158968925476074e-01
4.825184047222137451e-01 -1.179420128464698792e-01 3.215408623218536377e-01
-2.006459683179855347e-01 -5.306095480918884277e-01 2.846985459327697754e-01
4.383020848035812378e-02 4.142757356166839600e-01 -2.040684968233108521e-01
5.192151665687561035e-01 3.970778882503509521e-01 -1.930976063013076782e-01
2.090647816658020020e-01 -2.742260508239269257e-02 -4.670503437519073486e-01
4.122654497623443604e-01 3.596291542053222656e-01 -2.300999462604522705e-01
-4.090398848056793213e-01 1.505397707223892212e-01 3.434916436672210693e-01
-9.238153696060180664e-03 4.142757356166839600e-01 2.147704064846038818e-01
2.289623469114303589e-01 -9.873805195093154907e-02 -4.448979794979095459e-01
3.372348248958587646e-01 -1.350041925907135010e-01 3.583744764328002930e-01
6.128280982375144958e-02 -3.871624469757080078e-01 3.505364358425140381e-01
-5.606487393379211426e-01 -3.491146862506866455e-01 3.736737072467803955e-01
4.674959182739257812e-01 2.080826908349990845e-01 -2.710279822349548340e-01
5.220797657966613770e-01 7.914070785045623779e-02 -6.271304190158843994e-02
-4.669077098369598389e-01 2.879283726215362549e-01 -4.332846030592918396e-03
-1.996676325798034668e-01 2.718096971511840820e-01 -4.221537113189697266e-01
-4.732282757759094238e-01 3.893404603004455566e-01 -2.907465957105159760e-02
4.040344357490539551e-01 -1.268211193382740021e-02 -1.551187038421630859e-01
1.872896999120712280e-01 -3.148462176322937012e-01 3.227135539054870605e-01
-5.006401538848876953e-01 -3.017731606960296631e-01 3.335748612880706787e-01
-2.670976333320140839e-02 4.576337635517120361e-01 -5.565609335899353027e-01
1.824254691600799561e-01 4.498749375343322754e-01 -4.401784837245941162e-01
-6.148120164871215820e-01 -1.753202229738235474e-01 3.022563755512237549e-01
-4.414491057395935059e-01 5.005118250846862793e-01 -1.818194389343261719e-01
-1.260418742895126343e-01 3.622768223285675049e-01 -4.556069970130920410e-01
4.925788342952728271e-01 5.995212793350219727e-01 -1.769999265670776367e-01
2.535597085952758789e-01 3.289486765861511230e-01 4.872010648250579834e-01
-3.869001567363739014e-01 -1.141101270914077759e-01 1.506149917840957642e-01
3.545243442058563232e-01 -2.492429763078689575e-01 3.092269599437713623e-01
2.935226559638977051e-01 -2.830629646778106689e-01 -2.444979399442672729e-01
-4.629236459732055664e-01 2.595460414886474609e-01 4.287906363606452942e-02
-5.321801304817199707e-01 1.317329704761505127e-01 -1.729522645473480225e-02
5.414578318595886230e-02 4.142757356166839600e-01 -2.064936095848679543e-03
3.379508554935455322e-01 1.287996470928192139e-01 2.996315658092498779e-01
-2.388875484466552734e-01 2.201290130615234375e-01 3.936306536197662354e-01
-1.285692006349563599e-01 4.142757356166839600e-01 4.041473567485809326e-01
1.289012581110000610e-01 -4.259348213672637939e-01 4.914001747965812683e-02
3.337260186672210693e-01 -3.766885101795196533e-01 -1.333294063806533813e-01
-5.337073802947998047e-01 3.195263147354125977e-01 -1.301847249269485474e-01
-6.570932865142822266e-01 -2.559954226016998291e-01 4.301382601261138916e-01
1.324187666177749634e-01 4.142757356166839600e-01 5.604830756783485413e-02
6.413373351097106934e-01 -2.823569476604461670e-01 4.258907139301300049e-01
-8.614257723093032837e-02 3.142621517181396484e-01 -5.428970456123352051e-01
-3.974792957305908203e-01 4.142757356166839600e-01 1.585740894079208374e-01
4.351198375225067139e-01 5.483157634735107422e-01 1.967770159244537354e-01
-5.083577632904052734e-01 1.907194703817367554e-01 1.787824928760528564e-01
2.904804348945617676e-01 -3.168359100818634033e-01 -3.518799841403961182e-01
-5.059976130723953247e-02 -3.355661332607269287e-01 4.472410678863525391e-01
-4.686030745506286621e-01 5.945967435836791992e-01 -2.678766250610351562e-01
1.978852748870849609e-01 3.101884126663208008e-01 5.105943679809570312e-01
4.896946549415588379e-01 -4.208175837993621826e-02 2.539354264736175537e-01
4.580769240856170654e-01 2.712776362895965576e-01 -2.982486188411712646e-01
3.489506542682647705e-01 -3.271353840827941895e-01 2.882057130336761475e-01
-4.391883909702301025e-01 -1.580629199743270874e-01 2.149408459663391113e-01
2.891864478588104248e-01 -4.477855563163757324e-01 1.795847713947296143e-01
-3.016707003116607666e-01 4.152975380420684814e-01 -4.666420519351959229e-01
8.160081505775451660e-02 4.456173479557037354e-01 -4.697752296924591064e-01
3.085415363311767578e-01 -4.642669260501861572e-01 2.827444374561309814e-01
9.126966446638107300e-02 -2.114613503217697144e-01 4.691213667392730713e-01
-2.670702151954174042e-02 2.026626914739608765e-01 4.585659503936767578e-01
5.393707156181335449e-01 2.359264940023422241e-01 5.835544690489768982e-02
-5.177973508834838867e-01 5.995212793350219727e-01 7.933919876813888550e-02
2.952894270420074463e-01 5.205745697021484375e-01 3.742898702621459961e-01
6.422588825225830078e-01 -6.207506656646728516e-01 3.728383183479309082e-01
-9.850770980119705200e-02 -1.672574132680892944e-01 3.924320340156555176e-01
4.562410712242126465e-01 3.293466567993164062e-01 3.071743845939636230e-01
2.046476490795612335e-02 8.850802667438983917e-03 5.152106285095214844e-01
-1.631873250007629395e-01 -1.733221858739852905e-01 4.568823575973510742e-01
2.015846967697143555e-01 -3.688253164291381836e-01 3.942944109439849854e-01
3.607800602912902832e-01 -1.982777863740921021e-01 1.713812798261642456e-01
4.651194512844085693e-01 -2.132866829633712769e-01 -1.099466234445571899e-01
4.145950078964233398e-02 4.142757356166839600e-01 3.073247075080871582e-01
1.347255706787109375e-01 -5.097434520721435547e-01 3.831646740436553955e-01
3.368714451789855957e-01 4.142757356166839600e-01 4.831034317612648010e-02
5.111926794052124023e-01 -6.256701946258544922e-01 2.829032838344573975e-01
5.303434133529663086e-01 3.512581586837768555e-01 1.483551114797592163e-01
-1.344542652368545532e-01 -9.509656578302383423e-02 3.966237902641296387e-01
-6.068989261984825134e-02 -4.988738596439361572e-01 4.040737450122833252e-01
2.941536009311676025e-01 -5.224263668060302734e-01 7.049414794892072678e-03
5.131762623786926270e-01 5.964748263359069824e-01 1.589540392160415649e-01
9.770283102989196777e-02 4.390641152858734131e-01 -5.478138923645019531e-01
7.698719203472137451e-02 -8.390090614557266235e-02 4.948379993438720703e-01
4.040893912315368652e-01 -1.256001889705657959e-01 8.771859109401702881e-02
-3.779582306742668152e-02 -5.040273666381835938e-01 1.060593351721763611e-01
5.201556682586669922e-01 5.995212793350219727e-01 2.941349335014820099e-02
-1.260296404361724854e-01 -4.607118666172027588e-01 3.998687267303466797e-01
-9.714692831039428711e-02 4.142757356166839600e-01 -4.137995839118957520e-01
5.200328826904296875e-01 -6.568934321403503418e-01 3.295840322971343994e-01
4.157079160213470459e-01 4.091253280639648438e-01 3.666764795780181885e-01
-2.624872028827667236e-01 4.919315874576568604e-01 4.901890158653259277e-01
5.406121015548706055e-01 2.156347781419754028e-01 -2.810961008071899414e-02
-1.938867866992950439e-01 -9.954124689102172852e-03 4.744090437889099121e-01
4.580862522125244141e-01 2.568858861923217773e-01 -7.894810289144515991e-02
-3.571913838386535645e-01 3.512738645076751709e-01 4.195278882980346680e-01
-2.386662513017654419e-01 -9.504435956478118896e-02 4.383136928081512451e-01
3.719749152660369873e-01 1.527839154005050659e-01 -2.622603178024291992e-01
-1.445553004741668701e-01 5.448915958404541016e-01 -4.567150473594665527e-01
-1.618830859661102295e-01 1.744327843189239502e-01 -4.280658364295959473e-01
-4.894264340400695801e-01 3.365613520145416260e-01 -2.533210217952728271e-01
3.633872270584106445e-01 1.142155453562736511e-01 3.851667344570159912e-01
-3.664504587650299072e-01 5.058379769325256348e-01 4.197976887226104736e-01
-4.467029273509979248e-01 8.851256966590881348e-02 7.160983514040708542e-03
6.639089435338973999e-02 5.071107149124145508e-01 4.716345965862274170e-01
5.200672745704650879e-01 3.733908757567405701e-02 -3.169318428263068199e-03
2.549326121807098389e-01 -1.020463332533836365e-01 4.274169504642486572e-01
-4.689249992370605469e-01 4.889517724514007568e-01 9.042482823133468628e-02
4.456906616687774658e-01 1.380923092365264893e-01 -8.294369280338287354e-02
-2.175727337598800659e-01 -4.840317666530609131e-01 3.510460257530212402e-01
-4.486653506755828857e-01 -3.795838356018066406e-02 2.729979157447814941e-01
4.208567440509796143e-01 4.142757356166839600e-01 -1.298332363367080688e-01
-2.954918704926967621e-02 4.411945044994354248e-01 -4.762718677520751953e-01
4.482466876506805420e-01 4.142757356166839600e-01 1.229721680283546448e-02
2.783925458788871765e-02 5.899681448936462402e-01 -5.454259514808654785e-01
2.198078930377960205e-01 -2.622670233249664307e-01 -3.184929490089416504e-01
-4.807503819465637207e-01 5.917595624923706055e-01 2.514689266681671143e-01
5.441662669181823730e-01 4.710965454578399658e-01 -1.183016151189804077e-01
3.008686602115631104e-01 1.005692705512046814e-01 4.341340959072113037e-01
1.265216991305351257e-02 -4.320826232433319092e-01 2.061063498258590698e-01
4.376455843448638916e-01 5.332950949668884277e-01 -1.922223567962646484e-01
-4.377648830413818359e-01 3.718276321887969971e-01 1.765404045581817627e-01
-8.057673275470733643e-02 -1.509672999382019043e-01 4.823957979679107666e-01
-1.757143884897232056e-01 -2.766551971435546875e-01 4.287904798984527588e-01
5.255076289176940918e-01 1.142536550760269165e-01 6.751843541860580444e-02
2.732179760932922363e-01 2.743413150310516357e-01 -3.783034980297088623e-01
3.225440979003906250e-01 8.184350095689296722e-03 4.019726216793060303e-01
-2.394998520612716675e-01 5.634101629257202148e-01 4.125723838806152344e-01
3.191709518432617188e-01 -3.693349063396453857e-01 -3.081267476081848145e-01
-8.412032574415206909e-02 4.142757356166839600e-01 2.435884475708007812e-01
5.523409843444824219e-01 -4.474463686347007751e-02 3.570670187473297119e-01
-9.461268037557601929e-02 1.295729577541351318e-01 4.413040578365325928e-01
-4.588925242424011230e-01 1.957161724567413330e-01 1.248022448271512985e-02
-3.386171162128448486e-01 -2.161433100700378418e-01 2.039274424314498901e-01
5.057534575462341309e-01 5.343841388821601868e-02 1.294633895158767700e-01
-2.811807580292224884e-02 5.560941100120544434e-01 -4.786672294139862061e-01
4.480219632387161255e-02 1.107257530093193054e-01 -5.291278958320617676e-01
4.729018211364746094e-01 2.530333101749420166e-01 2.678962945938110352e-01
2.803224921226501465e-01 -3.894412815570831299e-01 3.360052704811096191e-01
5.082689523696899414e-01 2.070021927356719971e-01 -1.844602376222610474e-01
2.251672595739364624e-01 -2.317756265401840210e-01 -4.178851544857025146e-01
3.829608857631683350e-01 -2.748557329177856445e-01 -2.002273686230182648e-02
6.781584024429321289e-01 -1.227016597986221313e-01 3.335586786270141602e-01
3.395515084266662598e-01 -1.907007992267608643e-01 -2.144392430782318115e-01
2.610329687595367432e-01 5.186798572540283203e-01 -4.014380872249603271e-01
-4.369771480560302734e-02 -4.227356314659118652e-01 7.659509032964706421e-02
-5.141403898596763611e-02 1.528727114200592041e-01 -5.331217050552368164e-01
-1.379969716072082520e-01 -2.796237766742706299e-01 3.553872704505920410e-01
-6.998604536056518555e-02 -3.884099721908569336e-01 4.319004118442535400e-01
1.261083036661148071e-01 -4.095793068408966064e-01 3.265491127967834473e-01
4.846178293228149414e-01 1.277048587799072266e-01 -2.199906110763549805e-01
4.535313844680786133e-01 1.466848403215408325e-01 -2.370138838887214661e-02
-1.771747022867202759e-01 4.264020621776580811e-01 -5.275545716285705566e-01
4.335365891456604004e-01 -2.951599955558776855e-01 2.129192650318145752e-01
4.248910844326019287e-01 4.281761348247528076e-01 -2.146445363759994507e-01
4.463002085685729980e-02 -5.124863386154174805e-01 2.070171535015106201e-01
-5.003500580787658691e-01 4.455846250057220459e-01 2.421466857194900513e-01
4.095733165740966797e-01 -4.648733139038085938e-01 2.011113166809082031e-01
3.289365172386169434e-01 -3.235962241888046265e-02 -2.773213088512420654e-01
1.268626451492309570e-01 -6.422701757401227951e-03 -4.154662787914276123e-01
1.612421590834856033e-03 -2.426895499229431152e-01 3.892060518264770508e-01
3.352426886558532715e-01 1.468753814697265625e-01 -3.071084916591644287e-01
3.818762302398681641e-01 -2.543773315846920013e-02 -2.002096176147460938e-01
2.625705599784851074e-01 -5.237312912940979004e-01 1.513175964355468750e-01
-5.172601938247680664e-01 8.504213392734527588e-02 1.029891744256019592e-01
3.114745020866394043e-01 -2.159008532762527466e-01 -3.631004691123962402e-01
2.888650000095367432e-01 -2.450846433639526367e-01 3.710342645645141602e-01
-4.238321781158447266e-01 3.538209199905395508e-01 -3.539612293243408203e-01
3.577923774719238281e-01 -3.815040886402130127e-01 1.027083373628556728e-03
-1.128594577312469482e-01 4.142757356166839600e-01 1.905795186758041382e-01
2.564097940921783447e-01 1.702597886323928833e-01 3.772299289703369141e-01
4.433427453041076660e-01 2.248571962118148804e-01 -3.125960528850555420e-01
-4.654828310012817383e-01 5.698440670967102051e-01 1.084115877747535706e-01
4.759594798088073730e-01 5.331317186355590820e-01 -2.909165620803833008e-01
-1.582462638616561890e-01 3.381326496601104736e-01 4.426214993000030518e-01
2.689559198915958405e-02 -2.948630154132843018e-01 4.592849612236022949e-01
-4.386357963085174561e-01 4.016200006008148193e-01 -3.385992348194122314e-01
3.759268224239349365e-01 2.806384861469268799e-01 -3.973184823989868164e-01
2.537227272987365723e-01 -2.979406416416168213e-01 3.831530511379241943e-01
3.770982623100280762e-01 2.312538325786590576e-01 2.666872739791870117e-01
-2.842734456062316895e-01 2.352336198091506958e-01 -3.657888770103454590e-01
3.995967209339141846e-01 -1.043354496359825134e-01 -1.209982931613922119e-01
-3.939197659492492676e-01 5.493313074111938477e-01 -3.952761888504028320e-01
-2.578015327453613281e-01 4.376856982707977295e-01 -4.008607864379882812e-01
2.794476151466369629e-01 2.902918495237827301e-02 -4.388317167758941650e-01
3.570952415466308594e-01 -3.647648692131042480e-01 -2.648585736751556396e-01
4.368052780628204346e-01 9.665624052286148071e-02 -2.986821830272674561e-01
-6.690682172775268555e-01 -1.317699253559112549e-01 4.303543269634246826e-01
2.564316987991333008e-01 5.995212793350219727e-01 4.326664805412292480e-01
3.860221505165100098e-01 -2.136591821908950806e-01 -2.820784449577331543e-01
-4.265344887971878052e-02 5.438653826713562012e-01 5.556238889694213867e-01
4.229665696620941162e-01 -2.654326856136322021e-01 -1.991406530141830444e-01
4.164194762706756592e-01 2.529870271682739258e-01 3.499577343463897705e-01
-2.780946791172027588e-01 4.116692841053009033e-01 3.835612237453460693e-01
2.178517729043960571e-01 3.775546848773956299e-01 -4.207651317119598389e-01
2.220113724470138550e-01 3.685212135314941406e-01 4.160407185554504395e-01
5.710397660732269287e-02 -8.676819503307342529e-02 4.154433012008666992e-01
4.471193253993988037e-01 3.196101486682891846e-01 -1.444963067770004272e-01
-5.732225775718688965e-01 -1.426877230405807495e-01 2.817429304122924805e-01
5.220959782600402832e-01 -4.434926211833953857e-01 3.479955196380615234e-01
-3.721978664398193359e-01 5.618602037429809570e-01 4.153039157390594482e-01
3.086519539356231689e-01 4.559248089790344238e-01 3.620491623878479004e-01
-4.059566259384155273e-01 -1.734779477119445801e-01 2.703025937080383301e-01
-5.835398659110069275e-02 -4.355472028255462646e-01 2.306068688631057739e-01
1.055234223604202271e-01 3.596460679545998573e-03 5.043146014213562012e-01
-1.254859417676925659e-01 1.775252223014831543e-01 -5.232546925544738770e-01
3.392538428306579590e-01 -4.114278852939605713e-01 2.673311531543731689e-01
3.800030946731567383e-01 3.929938971996307373e-01 -4.030386805534362793e-01
1.410161256790161133e-01 1.047973781824111938e-01 -5.106171965599060059e-01
8.190165460109710693e-02 4.063503146171569824e-01 5.468392968177795410e-01
6.511946767568588257e-02 4.142757356166839600e-01 2.455549538135528564e-01
4.115276932716369629e-01 -3.154785335063934326e-01 -1.978805810213088989e-01
4.981761872768402100e-01 2.669490277767181396e-01 2.206279784440994263e-01
8.549513667821884155e-02 -5.026101469993591309e-01 -2.953130379319190979e-02
4.139131680130958557e-02 -4.312662482261657715e-01 3.417148888111114502e-01
-5.199077129364013672e-01 -5.295475944876670837e-02 3.427984714508056641e-01
4.228865802288055420e-01 -3.766950666904449463e-01 -1.269458681344985962e-01
3.345574438571929932e-01 -4.333906173706054688e-01 8.144742995500564575e-02
-2.971122860908508301e-01 -4.766126573085784912e-01 2.896930277347564697e-01
-4.653975963592529297e-01 4.175238013267517090e-01 -9.762070327997207642e-02
-3.500688076019287109e-01 -2.503910064697265625e-01 3.135851025581359863e-01
2.530235648155212402e-01 2.149118185043334961e-01 4.772244691848754883e-01
4.767475128173828125e-01 7.802082598209381104e-02 2.214731574058532715e-01
-4.936959743499755859e-01 1.278035342693328857e-01 1.965807378292083740e-01
4.146473705768585205e-01 5.346840023994445801e-01 -3.742809295654296875e-01
2.081490159034729004e-01 -4.361146688461303711e-01 1.253180056810379028e-01
-3.876318037509918213e-01 -1.161011755466461182e-01 3.086572289466857910e-01
2.963108941912651062e-02 4.142757356166839600e-01 5.918331816792488098e-02
-4.888601899147033691e-01 5.457561612129211426e-01 2.671301662921905518e-01
5.318658351898193359e-01 5.907695293426513672e-01 1.142394617199897766e-01
4.345155656337738037e-01 -3.405561745166778564e-01 1.148543730378150940e-01
-4.390351772308349609e-01 7.449505478143692017e-02 7.228682935237884521e-02
2.777473628520965576e-01 -4.902983009815216064e-01 -3.055049180984497070e-01
2.139532417058944702e-01 4.156621396541595459e-01 5.102650523185729980e-01
4.680002629756927490e-01 -8.726855367422103882e-02 -1.800750046968460083e-01
2.290722280740737915e-01 1.113498881459236145e-01 -4.792816936969757080e-01
-1.879347562789916992e-01 4.142757356166839600e-01 2.390045374631881714e-01
-5.117445588111877441e-01 2.606090307235717773e-01 1.868755966424942017e-01
-2.856516838073730469e-02 -2.618871927261352539e-01 4.665672183036804199e-01
2.979830503463745117e-01 -1.038228645920753479e-01 -2.928833663463592529e-01
-5.473973751068115234e-01 3.073565065860748291e-01 4.120156168937683105e-02
4.560632705688476562e-01 3.708767890930175781e-01 -1.232156455516815186e-01
3.105226457118988037e-01 -4.603655934333801270e-01 -2.840353250503540039e-01
2.922351360321044922e-01 -5.338529348373413086e-01 -2.254043370485305786e-01
-2.682962715625762939e-01 4.142757356166839600e-01 2.426110953092575073e-01
4.490322470664978027e-01 3.163077533245086670e-01 1.347149610519409180e-01
4.490514099597930908e-01 5.995212793350219727e-01 2.606477439403533936e-01
-3.686720132827758789e-01 1.000784784555435181e-01 2.547008693218231201e-01
3.512667715549468994e-01 -5.383634567260742188e-01 1.874788999557495117e-01
2.216080725193023682e-01 4.142757356166839600e-01 2.016505151987075806e-01
4.272087216377258301e-01 -2.009453624486923218e-02 5.745474249124526978e-02
4.620957672595977783e-01 -1.192146688699722290e-01 1.778104603290557861e-01
1.866464316844940186e-01 4.142757356166839600e-01 3.027413785457611084e-01
-2.889087796211242676e-01 -2.802647352218627930e-01 2.498685419559478760e-01
4.721172153949737549e-01 5.427830219268798828e-01 -7.385827600955963135e-02
4.122612178325653076e-01 -1.421434432268142700e-02 -3.057111501693725586e-01
-9.550826996564865112e-02 4.590703547000885010e-01 4.663163125514984131e-01
-6.849825382232666016e-01 -2.653279900550842285e-01 3.368650674819946289e-01
3.985303938388824463e-01 -1.209244597703218460e-03 3.249793350696563721e-01
1.681827008724212646e-01 -4.172342643141746521e-02 3.923985064029693604e-01
-5.525812506675720215e-01 4.498644769191741943e-01 5.718212947249412537e-02
5.861370563507080078e-01 -1.107565313577651978e-01 3.907768726348876953e-01
-5.260536670684814453e-01 3.784570395946502686e-01 1.702695786952972412e-01
-3.119599446654319763e-02 4.142757356166839600e-01 -1.650756411254405975e-02
6.748320907354354858e-02 -1.252615265548229218e-02 -5.093625783920288086e-01
4.274127185344696045e-01 7.910079509019851685e-02 1.246461048722267151e-01
-4.347607195377349854e-01 1.179499998688697815e-01 1.162152215838432312e-01
-9.884095191955566406e-02 -3.073711991310119629e-01 3.615735769271850586e-01
-4.303362667560577393e-01 -3.651160001754760742e-01 2.865963578224182129e-01
3.469657301902770996e-01 4.142757356166839600e-01 -2.832217812538146973e-01
2.874822020530700684e-01 -3.871304988861083984e-01 2.098805010318756104e-01
-3.766034170985221863e-02 -4.027948975563049316e-01 3.497331738471984863e-01
-2.447830289602279663e-01 3.396259844303131104e-01 -4.949429929256439209e-01
3.967203795909881592e-01 -4.348772168159484863e-01 -1.575753837823867798e-01
6.557540893554687500e-01 -6.873620301485061646e-02 3.813449442386627197e-01
2.583002746105194092e-01 3.523090481758117676e-01 -3.958520293235778809e-01
1.514874547719955444e-01 -4.687711969017982483e-02 -4.002064764499664307e-01
4.216582477092742920e-01 -4.338987469673156738e-01 -6.735588610172271729e-02
4.499232396483421326e-02 4.811897277832031250e-01 -4.756997823715209961e-01
3.982723653316497803e-01 5.857298374176025391e-01 -2.803718745708465576e-01
-4.863516092300415039e-01 -8.773836493492126465e-02 1.196672469377517700e-01
3.168399035930633545e-01 1.262722909450531006e-01 -4.276205003261566162e-01
2.992033362388610840e-01 5.259942635893821716e-02 4.276729524135589600e-01
-2.335043698549270630e-01 3.999744653701782227e-01 4.112880229949951172e-01
-2.257013022899627686e-01 5.922893285751342773e-01 -4.939662814140319824e-01
4.055211544036865234e-01 4.632914066314697266e-01 3.795934021472930908e-01
-1.095098182559013367e-01 2.695736885070800781e-01 5.342981815338134766e-01
-2.016439437866210938e-01 5.140163376927375793e-02 3.926874399185180664e-01
3.370656967163085938e-01 -2.387678176164627075e-01 -1.988615095615386963e-01
7.923762314021587372e-03 -5.164188146591186523e-01 2.465306073427200317e-01
3.129678964614868164e-02 -2.484594881534576416e-01 4.693019986152648926e-01
3.946467638015747070e-01 5.995212793350219727e-01 3.555237650871276855e-01
3.263159096240997314e-01 -3.018310964107513428e-01 1.877969503402709961e-01
-1.935240179300308228e-01 -2.022332549095153809e-01 3.475354909896850586e-01
-3.303711116313934326e-01 3.260094821453094482e-01 -3.346056938171386719e-01
-3.663237765431404114e-02 3.882209658622741699e-01 4.714685678482055664e-01
5.458075404167175293e-01 2.768317162990570068e-01 3.488020971417427063e-02
1.203821003437042236e-01 4.142757356166839600e-01 1.441788375377655029e-01
-7.254794239997863770e-02 3.738723993301391602e-01 5.464581847190856934e-01
-3.598254323005676270e-01 4.287917912006378174e-01 3.103702068328857422e-01
3.420561850070953369e-01 1.614420711994171143e-01 4.112810194492340088e-01
4.772840142250061035e-01 3.789855241775512695e-01 -2.789076864719390869e-01
4.213287532329559326e-01 -8.037459850311279297e-02 7.225278299301862717e-03
-2.069472223520278931e-01 -1.647840589284896851e-01 4.405332207679748535e-01
-2.118858397006988525e-01 -3.733469545841217041e-01 2.901867330074310303e-01
2.077566683292388916e-01 4.252754151821136475e-02 4.767628312110900879e-01
-2.060157656669616699e-01 9.078036237042397261e-05 3.816266059875488281e-01
-1.169817987829446793e-02 4.142757356166839600e-01 1.257807016372680664e-01
-4.709702730178833008e-01 1.527735590934753418e-02 2.134197950363159180e-01
-2.413353472948074341e-01 1.712485849857330322e-01 4.790954291820526123e-01
-1.501698642969131470e-01 7.024119049310684204e-02 5.019686818122863770e-01
3.460921049118041992e-01 -5.322901606559753418e-01 9.482286125421524048e-02
3.085153102874755859e-01 -4.490116238594055176e-01 -1.381020396947860718e-01
2.931574583053588867e-01 5.512468218803405762e-01 4.734044969081878662e-01
-7.702631503343582153e-02 -4.314499199390411377e-01 3.356908559799194336e-01
2.572169601917266846e-01 -4.588099941611289978e-02 -3.417956829071044922e-01
3.800806999206542969e-01 -2.859679460525512695e-01 2.728466875851154327e-02
3.657470345497131348e-01 -3.332732617855072021e-01 -5.401538312435150146e-02
-4.803853929042816162e-01 3.982390165328979492e-01 -2.756704390048980713e-01
-2.718549966812133789e-01 5.898540616035461426e-01 4.710670411586761475e-01
-4.285879805684089661e-02 1.689430028200149536e-01 -4.551835954189300537e-01
-5.540832281112670898e-01 5.816041231155395508e-01 8.082838729023933411e-03
-3.244724869728088379e-01 -2.898426353931427002e-01 1.966236978769302368e-01
5.428140759468078613e-01 3.526605665683746338e-01 9.730531275272369385e-02
-2.176563888788223267e-01 -2.816995084285736084e-01 4.081953763961791992e-01
-5.148186683654785156e-01 1.909908205270767212e-01 -1.600016802549362183e-01
1.777868717908859253e-01 2.196005582809448242e-01 -4.262752532958984375e-01
-3.476553782820701599e-02 -2.810463905334472656e-01 3.794719576835632324e-01
5.727436542510986328e-01 -4.287299513816833496e-01 3.818368017673492432e-01
-3.858648836612701416e-01 3.569933176040649414e-01 2.708488702774047852e-01
1.285462677478790283e-01 5.083785206079483032e-02 -4.235911965370178223e-01
5.308949947357177734e-01 5.008610486984252930e-01 1.685071885585784912e-01
-4.481407105922698975e-01 1.331949681043624878e-01 -6.069392338395118713e-02
4.907041788101196289e-01 1.118570286780595779e-02 -1.648429632186889648e-01
2.025319933891296387e-01 4.493373930454254150e-01 4.300158619880676270e-01
3.680447041988372803e-01 -4.771287143230438232e-01 -1.941114068031311035e-01
8.118839561939239502e-02 -4.328824877738952637e-01 1.976097524166107178e-01
3.055663704872131348e-01 5.562160015106201172e-01 -3.685844540596008301e-01
-3.619619607925415039e-01 3.473998606204986572e-01 -3.028028607368469238e-01
3.581632375717163086e-01 3.238557875156402588e-01 4.164778888225555420e-01
1.650153249502182007e-01 3.313869982957839966e-02 4.060871303081512451e-01
3.675139248371124268e-01 9.329761564731597900e-02 -2.565263211727142334e-01
5.365473628044128418e-01 -2.628488242626190186e-01 2.637218236923217773e-01
-3.523910343647003174e-01 4.762668311595916748e-01 3.206556737422943115e-01
-4.673887789249420166e-01 -4.058736562728881836e-01 3.113497793674468994e-01
-1.411607116460800171e-01 4.771219789981842041e-01 4.546300768852233887e-01
4.054617881774902344e-01 9.877610206604003906e-02 3.381481766700744629e-01
-1.164478808641433716e-01 -3.490817546844482422e-01 3.467028737068176270e-01
-5.749996900558471680e-01 -3.954169526696205139e-02 2.999153137207031250e-01
3.977349400520324707e-01 4.572184979915618896e-01 2.619449794292449951e-01
1.483146399259567261e-01 1.031104847788810730e-01 5.066302418708801270e-01
-1.720443516969680786e-01 3.968491852283477783e-01 4.404086172580718994e-01
2.519091665744781494e-01 -5.169666409492492676e-01 -1.464335899800062180e-02
-5.254226922988891602e-01 5.772485136985778809e-01 1.877251863479614258e-01
2.342811673879623413e-01 -5.165203809738159180e-01 8.212966471910476685e-02
-4.374073147773742676e-01 3.764274418354034424e-01 -1.798108220100402832e-01
-5.117313265800476074e-01 5.904839038848876953e-01 -1.869908869266510010e-01
3.465195596218109131e-01 5.367732048034667969e-01 3.279752135276794434e-01
2.751372009515762329e-02 -5.964419245719909668e-02 5.046309232711791992e-01
1.962872147560119629e-01 1.516131758689880371e-01 4.960129559040069580e-01
-5.254809558391571045e-02 1.566807627677917480e-01 5.315765738487243652e-01
6.225334405899047852e-01 -2.321663051843643188e-01 4.151077866554260254e-01
-5.283061265945434570e-01 5.376582741737365723e-01 -1.818593740463256836e-01
3.197850883007049561e-01 5.958366394042968750e-01 -4.334191381931304932e-01
-5.491458177566528320e-01 3.968110084533691406e-01 6.720955669879913330e-02
-2.863656878471374512e-01 -1.633480936288833618e-01 3.936097323894500732e-01
-3.563705086708068848e-01 -3.234827518463134766e-01 2.801051437854766846e-01
4.060776531696319580e-01 -3.676299750804901123e-01 1.771496981382369995e-01
4.588203728199005127e-01 -3.823476135730743408e-01 3.057166934013366699e-01
2.904764115810394287e-01 2.368849813938140869e-01 -4.597579836845397949e-01
3.412301540374755859e-01 4.409782290458679199e-01 3.300498723983764648e-01
-5.005457997322082520e-02 5.157050490379333496e-01 -4.758013188838958740e-01
-1.194668374955654144e-02 2.968375682830810547e-01 4.666376709938049316e-01
-3.102204799652099609e-01 4.142757356166839600e-01 -3.414925634860992432e-01
5.461326837539672852e-01 3.410645723342895508e-01 -6.818646192550659180e-02
1.484982222318649292e-01 -1.273563504219055176e-01 3.846020698547363281e-01
2.619668543338775635e-01 5.260264277458190918e-01 -4.930178523063659668e-01
3.085883259773254395e-01 -1.014406234025955200e-01 -3.924584090709686279e-01
-3.916254937648773193e-01 4.343131482601165771e-01 -3.939620852470397949e-01
3.452775180339813232e-01 4.326807558536529541e-01 -3.273986876010894775e-01
-2.670146822929382324e-01 3.415898978710174561e-01 3.873310089111328125e-01
5.005563497543334961e-01 -8.954335004091262817e-02 2.998072840273380280e-02
5.096445083618164062e-01 -1.434191875159740448e-02 -5.686973035335540771e-02
-2.808974385261535645e-01 -2.692475616931915283e-01 3.707809150218963623e-01
3.667629063129425049e-01 -3.347387611865997314e-01 4.182347282767295837e-02
4.932735115289688110e-03 3.585583865642547607e-01 -4.725233316421508789e-01
-1.326377391815185547e-01 5.839909911155700684e-01 5.343264341354370117e-01
3.593689799308776855e-01 -1.381018012762069702e-01 -3.372718989849090576e-01
-3.513948917388916016e-01 4.142757356166839600e-01 3.777124732732772827e-02
2.439663410186767578e-01 4.142757356166839600e-01 2.821925282478332520e-01
-1.364634484052658081e-01 -2.337845861911773682e-01 4.525502920150756836e-01
3.795712813735008240e-02 1.631693392992019653e-01 5.341811776161193848e-01
5.052061006426811218e-02 3.185477852821350098e-01 4.655306339263916016e-01
4.372220635414123535e-01 7.902546972036361694e-02 -8.976625651121139526e-02
2.160446792840957642e-01 1.892357766628265381e-01 -4.939786791801452637e-01
4.266674071550369263e-02 -3.243193924427032471e-01 3.683914840221405029e-01
2.391826510429382324e-01 -5.325441956520080566e-01 2.699666023254394531e-01
3.902591168880462646e-01 5.792135596275329590e-01 3.961243927478790283e-01
4.139026105403900146e-01 -9.811291843652725220e-02 -6.066280603408813477e-02
3.794425725936889648e-01 -4.965676963329315186e-01 1.544614434242248535e-01
-4.227616488933563232e-01 -2.654029130935668945e-01 2.815302014350891113e-01
-2.534730732440948486e-01 -5.327951908111572266e-01 2.580109536647796631e-01
3.160614967346191406e-01 -2.615987658500671387e-01 -3.459684550762176514e-01
-1.287033557891845703e-01 5.024482607841491699e-01 -4.603387415409088135e-01
-1.259453594684600830e-01 -1.516696065664291382e-01 4.721702933311462402e-01
3.521640896797180176e-01 2.496813982725143433e-01 3.020098805427551270e-01
2.962862253189086914e-01 2.413635998964309692e-01 -3.572036921977996826e-01
-1.788938641548156738e-01 4.142757356166839600e-01 -2.534279823303222656e-01
1.510264631360769272e-02 5.422295331954956055e-01 -4.785692989826202393e-01
4.414027035236358643e-01 -5.394585728645324707e-01 2.940736413002014160e-01
-5.066675543785095215e-01 1.106184124946594238e-01 1.544591635465621948e-01
4.967760741710662842e-01 -1.201480180025100708e-01 2.441049665212631226e-01
-4.626407325267791748e-01 8.307189494371414185e-02 2.503316402435302734e-01
1.017082184553146362e-01 -5.065270513296127319e-02 4.131523370742797852e-01
1.832734197378158569e-01 5.995212793350219727e-01 -4.951882958412170410e-01
-4.877470433712005615e-01 3.259171545505523682e-01 2.530591189861297607e-01
-3.490681946277618408e-01 1.788853406906127930e-01 2.950307130813598633e-01
4.404868930578231812e-03 7.547666132450103760e-02 -5.261972546577453613e-01
-5.432655215263366699e-01 3.144145905971527100e-01 -7.781425863504409790e-02
1.881555467844009399e-02 2.402313351631164551e-01 -5.438579320907592773e-01
4.041177034378051758e-01 2.604565620422363281e-01 -2.302173078060150146e-01
-2.872251868247985840e-01 4.142757356166839600e-01 1.922278255224227905e-01
5.344257503747940063e-02 3.177247643470764160e-01 5.455974340438842773e-01
2.018442749977111816e-01 5.554642081260681152e-01 5.187910199165344238e-01
4.091465473175048828e-01 -1.635185182094573975e-01 2.725137472152709961e-01
3.913471102714538574e-01 -2.112089246511459351e-01 6.472309678792953491e-02
4.305583536624908447e-01 2.711129486560821533e-01 -1.777602434158325195e-01
1.144023984670639038e-01 1.798521131277084351e-01 5.246335864067077637e-01
-7.589295506477355957e-02 5.307983160018920898e-01 4.708057343959808350e-01
-3.474358320236206055e-01 4.891109168529510498e-01 -4.357561767101287842e-01
2.245095819234848022e-01 1.828846484422683716e-01 -3.994944095611572266e-01
2.024752199649810791e-01 2.017476409673690796e-01 4.990298151969909668e-01
4.024659991264343262e-01 -5.431572198867797852e-01 2.636674344539642334e-01
3.766430318355560303e-01 -3.833673298358917236e-01 -2.274070829153060913e-01
5.225592851638793945e-01 2.009312510490417480e-01 1.324033886194229126e-01
-6.672618538141250610e-02 4.374421536922454834e-01 5.500356554985046387e-01
8.164931088685989380e-02 5.607191920280456543e-01 5.505931377410888672e-01
6.995218992233276367e-01 -1.911951601505279541e-01 4.006580710411071777e-01
-4.044695794582366943e-01 5.995212793350219727e-01 -3.169965147972106934e-01
-4.246417284011840820e-01 3.254014253616333008e-01 -2.027118057012557983e-01
1.543867588043212891e-01 4.142757356166839600e-01 -3.845575153827667236e-01
3.625763654708862305e-01 4.297797679901123047e-01 -4.217754900455474854e-01
-1.191164273768663406e-02 4.142757356166839600e-01 -9.229540824890136719e-02
1.754530332982540131e-02 5.500835180282592773e-01 5.564664602279663086e-01
4.836145639419555664e-01 -5.958355069160461426e-01 2.640855312347412109e-01
-3.501470386981964111e-01 4.142757356166839600e-01 -7.459297776222229004e-02
-3.054815828800201416e-01 6.220290437340736389e-02 3.203342258930206299e-01
3.900332152843475342e-01 5.995212793350219727e-01 -3.338712453842163086e-01
2.166435867547988892e-01 4.142757356166839600e-01 3.907467424869537354e-01
-4.284428060054779053e-02 -5.239459872245788574e-01 3.010966181755065918e-01
-1.228910610079765320e-01 -4.334435760974884033e-01 1.818109601736068726e-01
6.531176567077636719e-01 -5.081909298896789551e-01 3.874223232269287109e-01
-3.982185721397399902e-01 3.057833909988403320e-01 2.459019273519515991e-01
-2.224320769309997559e-01 4.549764394760131836e-01 -4.219918847084045410e-01
-1.935991793870925903e-01 -8.991220593452453613e-02 3.719714879989624023e-01
5.215322971343994141e-02 4.142757356166839600e-01 4.372430443763732910e-01
1.883882582187652588e-01 5.226368308067321777e-01 -5.259332060813903809e-01
3.520768582820892334e-01 4.142757356166839600e-01 1.342053115367889404e-01
4.341171681880950928e-01 -4.677289426326751709e-01 2.892035841941833496e-01
3.348926007747650146e-01 3.164546489715576172e-01 -4.355535507202148438e-01
4.552308619022369385e-01 -2.059568762779235840e-01 -1.526775658130645752e-01
3.021714687347412109e-01 3.665981292724609375e-01 4.617325663566589355e-01
3.084302544593811035e-01 -1.794889569282531738e-01 2.591622173786163330e-01
-3.338665664196014404e-01 4.771003425121307373e-01 -3.410223126411437988e-01
-4.519768059253692627e-01 -1.767622381448745728e-01 1.746767759323120117e-01
4.966640174388885498e-01 -4.394736588001251221e-01 2.440577745437622070e-01
-4.330130815505981445e-01 4.142757356166839600e-01 8.288898319005966187e-02
2.015332281589508057e-01 -1.269213259220123291e-01 4.502846598625183105e-01
1.102308109402656555e-01 3.209519684314727783e-01 5.379193425178527832e-01
-4.692648649215698242e-01 4.605824053287506104e-01 -8.406894654035568237e-02
3.825877606868743896e-02 -1.811362355947494507e-01 4.002688825130462646e-01
1.755198836326599121e-01 3.576410710811614990e-01 -4.385830163955688477e-01
-1.999693810939788818e-01 3.166433870792388916e-01 4.238452315330505371e-01
2.271238714456558228e-01 4.859430491924285889e-01 5.072157382965087891e-01
2.105332165956497192e-01 -1.357495039701461792e-02 -3.784005045890808105e-01
-3.230130299925804138e-02 4.766452908515930176e-01 5.552833080291748047e-01
4.617423713207244873e-01 2.988756895065307617e-01 7.455433160066604614e-02
1.002164091914892197e-02 -5.053954124450683594e-01 1.325640082359313965e-01
-7.432483881711959839e-02 1.160877496004104614e-01 5.241152048110961914e-01
4.139591157436370850e-01 -1.038465350866317749e-01 5.058168619871139526e-02
-3.590416610240936279e-01 -3.812435269355773926e-01 2.540662884712219238e-01
-4.548245668411254883e-01 -1.993867903947830200e-01 2.233554273843765259e-01
7.699748128652572632e-02 3.678307831287384033e-01 4.651022553443908691e-01
-5.485683679580688477e-01 5.356584191322326660e-01 1.021804213523864746e-01
