-1.660545617341995239e-01 1.773254722356796265e-01 -3.902744352817535400e-01
-1.765455901622772217e-01 1.999188661575317383e-01 -3.882726430892944336e-01
-1.873911470174789429e-01 2.298576235771179199e-01 -3.855843245983123779e-01
-1.294128596782684326e-01 6.207968294620513916e-02 -3.990265727043151855e-01
-1.457835137844085693e-01 8.119802176952362061e-02 -3.928983509540557861e-01
-1.595987975597381592e-01 1.000145524740219116e-01 -3.881604075431823730e-01
-1.689224392175674438e-01 1.190565228462219238e-01 -3.856264352798461914e-01
-1.768968701362609863e-01 1.348548829555511475e-01 -3.825419843196868896e-01
-1.846428513526916504e-01 1.544453203678131104e-01 -3.791126012802124023e-01
-1.903001070022583008e-01 1.794706135988235474e-01 -3.776801824569702148e-01
-2.001034468412399292e-01 2.074989974498748779e-01 -3.758149147033691406e-01
-1.603063046932220459e-01 5.230438709259033203e-02 -3.826890587806701660e-01
-1.731647849082946777e-01 7.141716778278350830e-02 -3.796498775482177734e-01
-1.835646480321884155e-01 8.849556744098663330e-02 -3.770513534545898438e-01
-1.913820654153823853e-01 1.045815795660018921e-01 -3.750754892826080322e-01
-1.984997093677520752e-01 1.197612881660461426e-01 -3.733820617198944092e-01
-2.033177763223648071e-01 1.383650004863739014e-01 -3.707757294178009033e-01
-2.081539779901504517e-01 1.610687524080276489e-01 -3.678476512432098389e-01
-2.187115997076034546e-01 1.897961199283599854e-01 -3.646849095821380615e-01
3.340963721275329590e-01 6.985471844673156738e-01 -2.846030592918395996e-01
3.273605704307556152e-01 7.344556450843811035e-01 -2.822583913803100586e-01
3.192116320133209229e-01 7.621637582778930664e-01 -2.831758856773376465e-01
3.091997802257537842e-01 7.951567769050598145e-01 -2.878932356834411621e-01
2.994051575660705566e-01 8.234781622886657715e-01 -2.955676317214965820e-01
2.924870550632476807e-01 8.446633219718933105e-01 -3.021665513515472412e-01
2.832375168800354004e-01 8.532726168632507324e-01 -3.062193989753723145e-01
2.576413154602050781e-01 8.608340620994567871e-01 -3.034469783306121826e-01
3.156466186046600342e-01 6.796676516532897949e-01 -2.983874082565307617e-01
3.042049407958984375e-01 7.194385528564453125e-01 -3.014029264450073242e-01
2.944610118865966797e-01 7.494623064994812012e-01 -3.041154146194458008e-01
2.835463881492614746e-01 7.825791835784912109e-01 -3.097681999206542969e-01
2.732081413269042969e-01 8.098825812339782715e-01 -3.197497725486755371e-01
2.637315392494201660e-01 8.358153104782104492e-01 -3.290844857692718506e-01
2.464351356029510498e-01 8.520819544792175293e-01 -3.386763334274291992e-01
2.159017771482467651e-01 8.636598587036132812e-01 -3.428708612918853760e-01
2.970145344734191895e-01 6.603811979293823242e-01 -3.142432868480682373e-01
2.837017178535461426e-01 7.039344310760498047e-01 -3.206446766853332520e-01
2.706909775733947754e-01 7.428576946258544922e-01 -3.260344266891479492e-01
2.561489343643188477e-01 7.753202319145202637e-01 -3.350778520107269287e-01
2.478185892105102539e-01 7.994457483291625977e-01 -3.417304754257202148e-01
2.334879040718078613e-01 8.254048228263854980e-01 -3.502961993217468262e-01
2.147843986749649048e-01 8.488315343856811523e-01 -3.599229753017425537e-01
1.862151026725769043e-01 8.631347417831420898e-01 -3.633920252323150635e-01
2.752247154712677002e-01 6.441360712051391602e-01 -3.305720090866088867e-01
2.556300759315490723e-01 6.914394497871398926e-01 -3.439774811267852783e-01
2.435715943574905396e-01 7.308691740036010742e-01 -3.519558310508728027e-01
2.302991747856140137e-01 7.630989551544189453e-01 -3.563031256198883057e-01
2.178747802972793579e-01 7.883032560348510742e-01 -3.613472580909729004e-01
2.048885226249694824e-01 8.110467195510864258e-01 -3.659511208534240723e-01
1.872364282608032227e-01 8.408108949661254883e-01 -3.738000392913818359e-01
1.593513339757919312e-01 8.574284911155700684e-01 -3.819886445999145508e-01
2.523200511932373047e-01 6.333903074264526367e-01 -3.519266843795776367e-01
2.300664186477661133e-01 6.765470504760742188e-01 -3.617534637451171875e-01
2.152626216411590576e-01 7.160986065864562988e-01 -3.691955208778381348e-01
2.048127949237823486e-01 7.476495504379272461e-01 -3.735158443450927734e-01
1.960772722959518433e-01 7.753157615661621094e-01 -3.742517530918121338e-01
1.844616234302520752e-01 7.992755770683288574e-01 -3.766175210475921631e-01
1.644142121076583862e-01 8.258948922157287598e-01 -3.839907050132751465e-01
1.367354393005371094e-01 8.510431051254272461e-01 -3.937307000160217285e-01
2.208539247512817383e-01 6.313696503639221191e-01 -3.676061034202575684e-01
2.041398286819458008e-01 6.618229150772094727e-01 -3.759078383445739746e-01
1.912756562232971191e-01 6.993446350097656250e-01 -3.793282508850097656e-01
1.841749995946884155e-01 7.302901148796081543e-01 -3.823868036270141602e-01
1.750298887491226196e-01 7.576826214790344238e-01 -3.849912583827972412e-01
1.621139198541641235e-01 7.860366702079772949e-01 -3.879181444644927979e-01
1.416135728359222412e-01 8.124346137046813965e-01 -3.950508236885070801e-01
1.153109818696975708e-01 8.408491611480712891e-01 -4.056533575057983398e-01
1.881702542304992676e-01 6.322133541107177734e-01 -3.783115148544311523e-01
1.772092580795288086e-01 6.520547866821289062e-01 -3.870468735694885254e-01
1.697490662336349487e-01 6.847705245018005371e-01 -3.892269730567932129e-01
1.632202118635177612e-01 7.133333683013916016e-01 -3.905560374259948730e-01
1.516740620136260986e-01 7.405851483345031738e-01 -3.943449556827545166e-01
1.378081142902374268e-01 7.691625356674194336e-01 -3.995455801486968994e-01
1.169904172420501709e-01 7.973662018775939941e-01 -4.081480801105499268e-01
8.326080441474914551e-02 8.304630517959594727e-01 -4.184830486774444580e-01
1.525530070066452026e-01 6.372201442718505859e-01 -3.990423083305358887e-01
1.495999097824096680e-01 6.498713493347167969e-01 -3.932172358036041260e-01
1.447412818670272827e-01 6.747602820396423340e-01 -3.986416459083557129e-01
1.361105591058731079e-01 7.002799510955810547e-01 -3.999280929565429688e-01
1.223891675472259521e-01 7.283203005790710449e-01 -4.029864966869354248e-01
1.038561314344406128e-01 7.565775513648986816e-01 -4.125473201274871826e-01
7.753264904022216797e-02 7.809435129165649414e-01 -4.188188314437866211e-01
4.023608565330505371e-02 8.157728314399719238e-01 -4.254512190818786621e-01
-2.675697207450866699e-02 -3.627459704875946045e-01 -4.222077429294586182e-01
-4.936175048351287842e-02 -3.343142271041870117e-01 -4.202832579612731934e-01
-7.030640542507171631e-02 -3.062586188316345215e-01 -4.186455011367797852e-01
-8.723244071006774902e-02 -2.821157276630401611e-01 -4.171409308910369873e-01
-1.018875688314437866e-01 -2.621013820171356201e-01 -4.139172434806823730e-01
-1.209398731589317322e-01 -2.389517277479171753e-01 -4.058784246444702148e-01
-1.423063874244689941e-01 -2.129706889390945435e-01 -3.960183560848236084e-01
-1.742211729288101196e-01 -1.794676631689071655e-01 -3.872749209403991699e-01
-5.413772165775299072e-02 -3.842686712741851807e-01 -4.174117445945739746e-01
-7.826277613639831543e-02 -3.576012253761291504e-01 -4.152341485023498535e-01
-1.012126952409744263e-01 -3.312569856643676758e-01 -4.115057289600372314e-01
-1.179601550102233887e-01 -3.089380264282226562e-01 -4.063199162483215332e-01
-1.337776333093643188e-01 -2.832123935222625732e-01 -4.007364213466644287e-01
-1.496614515781402588e-01 -2.620198130607604980e-01 -3.944568037986755371e-01
-1.708911210298538208e-01 -2.333611547946929932e-01 -3.869726359844207764e-01
-1.985386759042739868e-01 -2.004075795412063599e-01 -3.765186071395874023e-01
-7.408484816551208496e-02 -4.084484577178955078e-01 -4.138265848159790039e-01
-9.936616569757461548e-02 -3.838008940219879150e-01 -4.094021320343017578e-01
-1.222030892968177795e-01 -3.556791841983795166e-01 -4.037020206451416016e-01
-1.418830454349517822e-01 -3.292311429977416992e-01 -3.975713551044464111e-01
-1.563517004251480103e-01 -3.075721561908721924e-01 -3.923629224300384521e-01
-1.702866852283477783e-01 -2.844046056270599365e-01 -3.868660330772399902e-01
-1.875810623168945312e-01 -2.574699819087982178e-01 -3.804509043693542480e-01
-2.102261632680892944e-01 -2.218705862760543823e-01 -3.702349662780761719e-01
-9.703332185745239258e-02 -4.320982992649078369e-01 -4.099774360656738281e-01
-1.213006228208541870e-01 -4.069203436374664307e-01 -4.028436243534088135e-01
-1.428778320550918579e-01 -3.813091218471527100e-01 -3.960278928279876709e-01
-1.579250097274780273e-01 -3.524184226989746094e-01 -3.915040194988250732e-01
-1.700520217418670654e-01 -3.307916224002838135e-01 -3.858865499496459961e-01
-1.830438673496246338e-01 -3.106895089149475098e-01 -3.805339038372039795e-01
-1.965649873018264771e-01 -2.824687957763671875e-01 -3.757075667381286621e-01
-2.158246189355850220e-01 -2.483922392129898071e-01 -3.664440810680389404e-01
-1.190585494041442871e-01 -4.542024433612823486e-01 -4.046591818332672119e-01
-1.431662887334823608e-01 -4.277576208114624023e-01 -3.970166742801666260e-01
-1.577132195234298706e-01 -4.035157263278961182e-01 -3.899766206741333008e-01
-1.697720289230346680e-01 -3.771259486675262451e-01 -3.839417994022369385e-01
-1.833757758140563965e-01 -3.534150719642639160e-01 -3.785312771797180176e-01
-1.949261426925659180e-01 -3.346484899520874023e-01 -3.739428222179412842e-01
-2.079055905342102051e-01 -3.118070363998413086e-01 -3.683885931968688965e-01
-2.239761799573898315e-01 -2.740381956100463867e-01 -3.614234328269958496e-01
-1.423720866441726685e-01 -4.768684506416320801e-01 -3.968919515609741211e-01
-1.598759442567825317e-01 -4.481047391891479492e-01 -3.875896930694580078e-01
-1.739358454942703247e-01 -4.240054190158843994e-01 -3.799319565296173096e-01
-1.879759877920150757e-01 -4.013872146606445312e-01 -3.722642362117767334e-01
-2.000709772109985352e-01 -3.792051970958709717e-01 -3.659783005714416504e-01
-2.119987159967422485e-01 -3.590363860130310059e-01 -3.612295687198638916e-01
-2.227386534214019775e-01 -3.386295735836029053e-01 -3.581237196922302246e-01
-2.376579046249389648e-01 -2.978751063346862793e-01 -3.517153263092041016e-01
-1.668639630079269409e-01 -4.934940338134765625e-01 -3.813497722148895264e-01
-1.835317611694335938e-01 -4.672728478908538818e-01 -3.731066584587097168e-01
-1.998269110918045044e-01 -4.450937509536743164e-01 -3.646462559700012207e-01
-2.124506831169128418e-01 -4.237147867679595947e-01 -3.578429818153381348e-01
-2.227913439273834229e-01 -4.033252596855163574e-01 -3.529220819473266602e-01
-2.317148894071578979e-01 -3.846672475337982178e-01 -3.495387434959411621e-01
-2.424326241016387939e-01 -3.590537905693054199e-01 -3.444111049175262451e-01
-2.531580328941345215e-01 -3.202270269393920898e-01 -3.398012518882751465e-01
-2.024113982915878296e-01 -5.056921243667602539e-01 -3.634490072727203369e-01
-2.180379778146743774e-01 -4.833387732505798340e-01 -3.562443554401397705e-01
-2.287220507860183716e-01 -4.630340039730072021e-01 -3.498652875423431396e-01
-2.368648052215576172e-01 -4.419831633567810059e-01 -3.463739156723022461e-01
-2.450835853815078735e-01 -4.222356975078582764e-01 -3.435257971286773682e-01
-2.516762018203735352e-01 -4.037017226219177246e-01 -3.387705385684967041e-01
-2.593182921409606934e-01 -3.743854463100433350e-01 -3.332307040691375732e-01
-2.687081098556518555e-01 -3.397966325283050537e-01 -3.276242017745971680e-01
4.419606029987335205e-01 -3.859409987926483154e-01 2.167800515890121460e-01
4.427025616168975830e-01 -3.543017208576202393e-01 2.102592289447784424e-01
4.448984563350677490e-01 -3.246652781963348389e-01 2.006502151489257812e-01
4.477854669094085693e-01 -3.018208742141723633e-01 1.927662044763565063e-01
4.493719935417175293e-01 -2.738101482391357422e-01 1.886928379535675049e-01
4.498856663703918457e-01 -2.352043539285659790e-01 1.897254884243011475e-01
4.484432041645050049e-01 -1.837961524724960327e-01 1.980775892734527588e-01
4.421859085559844971e-01 -1.352740228176116943e-01 2.221665084362030029e-01
4.460659623146057129e-01 -4.137856364250183105e-01 1.897047907114028931e-01
4.496485590934753418e-01 -3.829433023929595947e-01 1.790118813514709473e-01
4.530258476734161377e-01 -3.511216640472412109e-01 1.763874739408493042e-01
4.536993503570556641e-01 -3.234285116195678711e-01 1.833593845367431641e-01
4.517799019813537598e-01 -2.953307032585144043e-01 1.945751160383224487e-01
4.467997252941131592e-01 -2.636749148368835449e-01 2.068795561790466309e-01
4.386836588382720947e-01 -2.167718112468719482e-01 2.224117368459701538e-01
4.282120764255523682e-01 -1.612771898508071899e-01 2.420218735933303833e-01
4.492239356040954590e-01 -4.375358819961547852e-01 1.746964454650878906e-01
4.516022205352783203e-01 -4.034889936447143555e-01 1.734213680028915405e-01
4.518442749977111816e-01 -3.735572695732116699e-01 1.832120567560195923e-01
4.471958577632904053e-01 -3.467891514301300049e-01 2.019799649715423584e-01
4.404016137123107910e-01 -3.183464407920837402e-01 2.147751748561859131e-01
4.333080947399139404e-01 -2.899213731288909912e-01 2.271032631397247314e-01
4.254318177700042725e-01 -2.509536445140838623e-01 2.423545867204666138e-01
4.153495430946350098e-01 -1.979218870401382446e-01 2.611382305622100830e-01
4.484382867813110352e-01 -4.597623348236083984e-01 1.785717457532882690e-01
4.498001933097839355e-01 -4.242505431175231934e-01 1.829871833324432373e-01
4.443488717079162598e-01 -3.971244990825653076e-01 2.023225724697113037e-01
4.369729757308959961e-01 -3.699738979339599609e-01 2.200637608766555786e-01
4.316232204437255859e-01 -3.406673669815063477e-01 2.306201010942459106e-01
4.258001446723937988e-01 -3.119946122169494629e-01 2.426956593990325928e-01
4.184415638446807861e-01 -2.763959765434265137e-01 2.570467591285705566e-01
4.088267385959625244e-01 -2.341781407594680786e-01 2.718066573143005371e-01
4.446339011192321777e-01 -4.838589131832122803e-01 1.966964304447174072e-01
4.418678581714630127e-01 -4.488670229911804199e-01 2.071664482355117798e-01
4.347867369651794434e-01 -4.188619852066040039e-01 2.252621501684188843e-01
4.283993244171142578e-01 -3.914930224418640137e-01 2.413892894983291626e-01
4.245783984661102295e-01 -3.629108369350433350e-01 2.485554665327072144e-01
4.199542999267578125e-01 -3.330382108688354492e-01 2.558706700801849365e-01
4.134185016155242920e-01 -3.022567629814147949e-01 2.665607929229736328e-01
4.041670560836791992e-01 -2.618054449558258057e-01 2.804261744022369385e-01
4.381294548511505127e-01 -5.076857805252075195e-01 2.084640413522720337e-01
4.320393502712249756e-01 -4.695362150669097900e-01 2.358824014663696289e-01
4.262299537658691406e-01 -4.369588196277618408e-01 2.506620883941650391e-01
4.204950928688049316e-01 -4.089969098567962646e-01 2.623398005962371826e-01
4.175938963890075684e-01 -3.845659494400024414e-01 2.668364048004150391e-01
4.125784039497375488e-01 -3.546445667743682861e-01 2.724463343620300293e-01
4.054577946662902832e-01 -3.250754475593566895e-01 2.819708585739135742e-01
3.965152502059936523e-01 -2.883184850215911865e-01 2.960143089294433594e-01
4.331578612327575684e-01 -4.899043440818786621e-01 1.902563422918319702e-01
4.195554852485656738e-01 -4.944476187229156494e-01 2.638491094112396240e-01
4.152001738548278809e-01 -4.550425410270690918e-01 2.760119438171386719e-01
4.119655787944793701e-01 -4.248590469360351562e-01 2.797276079654693604e-01
4.085120856761932373e-01 -4.023797512054443359e-01 2.845140397548675537e-01
4.026275575160980225e-01 -3.795228600502014160e-01 2.930559813976287842e-01
3.964964747428894043e-01 -3.458871841430664062e-01 3.013774454593658447e-01
3.889193832874298096e-01 -3.110124766826629639e-01 3.127583861351013184e-01
4.360982775688171387e-01 -4.352638721466064453e-01 2.020494192838668823e-01
4.176744818687438965e-01 -4.771089553833007812e-01 2.437458336353302002e-01
4.050334393978118896e-01 -4.768992662429809570e-01 2.943165004253387451e-01
4.007255733013153076e-01 -4.448702335357666016e-01 3.027758300304412842e-01
3.974984884262084961e-01 -4.200158119201660156e-01 3.069519400596618652e-01
3.936322927474975586e-01 -3.983525037765502930e-01 3.106844425201416016e-01
3.871963918209075928e-01 -3.696782588958740234e-01 3.185787796974182129e-01
3.752349019050598145e-01 -3.311588466167449951e-01 3.295695185661315918e-01
2.227451652288436890e-02 3.284910619258880615e-01 5.143093466758728027e-01
1.129738241434097290e-02 3.572206497192382812e-01 5.146038532257080078e-01
-1.681320369243621826e-03 3.828271031379699707e-01 5.152875185012817383e-01
-1.522904634475708008e-02 4.067282080650329590e-01 5.162649154663085938e-01
-2.698280662298202515e-02 4.321168363094329834e-01 5.158584713935852051e-01
-3.863833844661712646e-02 4.619489312171936035e-01 5.145820975303649902e-01
-5.076064914464950562e-02 4.951712787151336670e-01 5.127426385879516602e-01
-6.702122092247009277e-02 5.301015377044677734e-01 5.113173127174377441e-01
3.323458135128021240e-03 3.166326284408569336e-01 5.157702565193176270e-01
-1.089885830879211426e-02 3.438198864459991455e-01 5.165034532546997070e-01
-2.726617082953453064e-02 3.734294772148132324e-01 5.166078209877014160e-01
-3.895565867424011230e-02 3.950718939304351807e-01 5.159886479377746582e-01
-4.903853312134742737e-02 4.192651808261871338e-01 5.147046446800231934e-01
-6.013448536396026611e-02 4.457336366176605225e-01 5.135030150413513184e-01
-7.219204306602478027e-02 4.727023839950561523e-01 5.106838941574096680e-01
-8.968834578990936279e-02 5.085238218307495117e-01 5.045470595359802246e-01
-1.666025072336196899e-02 3.035101890563964844e-01 5.169041752815246582e-01
-3.247266635298728943e-02 3.292192816734313965e-01 5.167465209960937500e-01
-4.625190049409866333e-02 3.569670021533966064e-01 5.156028866767883301e-01
-5.698394030332565308e-02 3.816833198070526123e-01 5.146778225898742676e-01
-6.711892783641815186e-02 4.030696749687194824e-01 5.134399533271789551e-01
-7.811700552701950073e-02 4.258750081062316895e-01 5.100536942481994629e-01
-9.043765813112258911e-02 4.526809453964233398e-01 5.054131150245666504e-01
-1.083374470472335815e-01 4.922414422035217285e-01 5.001102685928344727e-01
-3.470191359519958496e-02 2.845541238784790039e-01 5.167102813720703125e-01
-4.802214726805686951e-02 3.132072091102600098e-01 5.154291987419128418e-01
-5.944034829735755920e-02 3.351814448833465576e-01 5.145349502563476562e-01
-7.162092626094818115e-02 3.595072627067565918e-01 5.132873058319091797e-01
-8.210766315460205078e-02 3.847011625766754150e-01 5.098361968994140625e-01
-9.326036274433135986e-02 4.053529500961303711e-01 5.052037239074707031e-01
-1.080610156059265137e-01 4.314909577369689941e-01 5.009519457817077637e-01
-1.228655874729156494e-01 4.725030362606048584e-01 4.967023432254791260e-01
-4.842768609523773193e-02 2.646498382091522217e-01 5.157207250595092773e-01
-6.234687194228172302e-02 2.945370972156524658e-01 5.142677426338195801e-01
-7.500874996185302734e-02 3.167261779308319092e-01 5.126368999481201172e-01
-8.640549331903457642e-02 3.377699851989746094e-01 5.086569190025329590e-01
-9.621445089578628540e-02 3.613190650939941406e-01 5.045515298843383789e-01
-1.100158095359802246e-01 3.881922364234924316e-01 5.010133385658264160e-01
-1.207826137542724609e-01 4.115805625915527344e-01 4.978260397911071777e-01
-1.338824927806854248e-01 4.488872885704040527e-01 4.941692650318145752e-01
-6.081335619091987610e-02 2.468237727880477905e-01 5.150315165519714355e-01
-7.719012349843978882e-02 2.719628810882568359e-01 5.121490955352783203e-01
-9.027791023254394531e-02 2.974733114242553711e-01 5.075551867485046387e-01
-1.022133082151412964e-01 3.168877959251403809e-01 5.030378103256225586e-01
-1.144331768155097961e-01 3.381426632404327393e-01 5.001394152641296387e-01
-1.266084015369415283e-01 3.673401772975921631e-01 4.968537986278533936e-01
-1.345566213130950928e-01 3.959484696388244629e-01 4.946429431438446045e-01
-1.478420495986938477e-01 4.282748401165008545e-01 4.908762574195861816e-01
-8.384253829717636108e-02 2.276172637939453125e-01 5.106878280639648438e-01
-9.577616304159164429e-02 2.526724338531494141e-01 5.062205791473388672e-01
-1.109060645103454590e-01 2.781534790992736816e-01 5.009019374847412109e-01
-1.241135597229003906e-01 3.008160591125488281e-01 4.977198541164398193e-01
-1.346873044967651367e-01 3.207628428936004639e-01 4.949904084205627441e-01
-1.440812200307846069e-01 3.430700600147247314e-01 4.925130605697631836e-01
-1.510756015777587891e-01 3.745344877243041992e-01 4.903510510921478271e-01
-1.622260212898254395e-01 4.062635600566864014e-01 4.864144325256347656e-01
-1.213480234146118164e-01 2.160449773073196411e-01 5.023786425590515137e-01
-1.319352835416793823e-01 2.416528016328811646e-01 4.977922439575195312e-01
-1.428512781858444214e-01 2.651246786117553711e-01 4.932846426963806152e-01
-1.511909365653991699e-01 2.871111035346984863e-01 4.905152618885040283e-01
-1.563516855239868164e-01 3.075266182422637939e-01 4.891968071460723877e-01
-1.609646081924438477e-01 3.271273374557495117e-01 4.878158569335937500e-01
-1.690674424171447754e-01 3.509502708911895752e-01 4.847285449504852295e-01
-1.798066198825836182e-01 3.829978704452514648e-01 4.798458218574523926e-01
3.083009123802185059e-01 -7.739602122455835342e-03 4.067918658256530762e-01
2.962331771850585938e-01 1.493211463093757629e-02 4.189364016056060791e-01
2.870275080204010010e-01 3.563930466771125793e-02 4.277498722076416016e-01
2.781426310539245605e-01 5.893965438008308411e-02 4.326301515102386475e-01
2.688521742820739746e-01 8.539523184299468994e-02 4.382074773311614990e-01
2.579558491706848145e-01 1.097536832094192505e-01 4.450971484184265137e-01
2.452706098556518555e-01 1.341103613376617432e-01 4.529297351837158203e-01
2.326136380434036255e-01 1.718150824308395386e-01 4.599814116954803467e-01
2.929812669754028320e-01 -2.288708835840225220e-02 4.229066073894500732e-01
2.792425751686096191e-01 3.043289761990308762e-03 4.323383569717407227e-01
2.703946828842163086e-01 2.215585857629776001e-02 4.390493333339691162e-01
2.606651782989501953e-01 4.252248629927635193e-02 4.464741647243499756e-01
2.493200451135635376e-01 6.451262533664703369e-02 4.522861540317535400e-01
2.378303706645965576e-01 8.783711493015289307e-02 4.582544565200805664e-01
2.268658727407455444e-01 1.160122007131576538e-01 4.634801149368286133e-01
2.163655459880828857e-01 1.515109688043594360e-01 4.686341285705566406e-01
2.820675969123840332e-01 -3.979593515396118164e-02 4.321848452091217041e-01
2.693220674991607666e-01 -1.390792243182659149e-02 4.409678280353546143e-01
2.587944269180297852e-01 6.416793446987867355e-03 4.482426941394805908e-01
2.477139830589294434e-01 2.692022174596786499e-02 4.547010958194732666e-01
2.346658110618591309e-01 4.789350554347038269e-02 4.605996310710906982e-01
2.237999588251113892e-01 6.764985620975494385e-02 4.652967154979705811e-01
2.148655951023101807e-01 9.358146786689758301e-02 4.692584574222564697e-01
2.032457888126373291e-01 1.306138932704925537e-01 4.745386838912963867e-01
2.713678479194641113e-01 -5.886016786098480225e-02 4.385109841823577881e-01
2.590161859989166260e-01 -3.143676742911338806e-02 4.475065767765045166e-01
2.470738142728805542e-01 -9.865809231996536255e-03 4.552298784255981445e-01
2.343364655971527100e-01 8.451823145151138306e-03 4.614606797695159912e-01
2.224610000848770142e-01 2.534265071153640747e-02 4.667774438858032227e-01
2.139836400747299194e-01 4.663517698645591736e-02 4.707431793212890625e-01
2.055315524339675903e-01 7.146996259689331055e-02 4.741490185260772705e-01
1.880410462617874146e-01 1.116500645875930786e-01 4.798055291175842285e-01
2.613349258899688721e-01 -7.841300964355468750e-02 4.448379278182983398e-01
2.480284124612808228e-01 -5.159027501940727234e-02 4.535029232501983643e-01
2.338883578777313232e-01 -2.599755674600601196e-02 4.618466198444366455e-01
2.227534353733062744e-01 -9.101869538426399231e-03 4.678870737552642822e-01
2.137198299169540405e-01 8.033018559217453003e-03 4.724559485912322998e-01
2.034853249788284302e-01 2.607879042625427246e-02 4.758468270301818848e-01
1.912663877010345459e-01 5.277594551444053650e-02 4.794300794601440430e-01
1.741536855697631836e-01 8.807881176471710205e-02 4.843830168247222900e-01
2.484571486711502075e-01 -9.763852506875991821e-02 4.518107771873474121e-01
2.345635294914245605e-01 -7.292746007442474365e-02 4.600863754749298096e-01
2.204575836658477783e-01 -4.767153412103652954e-02 4.686137735843658447e-01
2.099463194608688354e-01 -2.747884392738342285e-02 4.741542935371398926e-01
1.966641545295715332e-01 -8.427677676081657410e-03 4.784717857837677002e-01
1.865908205509185791e-01 9.212780743837356567e-03 4.817118942737579346e-01
1.734264194965362549e-01 3.325874730944633484e-02 4.854905009269714355e-01
1.561356633901596069e-01 6.837503612041473389e-02 4.898222684860229492e-01
2.332650721073150635e-01 -1.117394417524337769e-01 4.603952765464782715e-01
2.187749445438385010e-01 -8.769722282886505127e-02 4.687596559524536133e-01
2.044202089309692383e-01 -6.809088587760925293e-02 4.757989346981048584e-01
1.903953403234481812e-01 -4.688469320535659790e-02 4.801905155181884766e-01
1.791607290506362915e-01 -2.733375504612922668e-02 4.838256835937500000e-01
1.686006784439086914e-01 -7.037399802356958389e-03 4.874921143054962158e-01
1.529156416654586792e-01 1.473653689026832581e-02 4.923775494098663330e-01
1.332133412361145020e-01 4.522051289677619934e-02 4.977774024009704590e-01
2.109616845846176147e-01 -1.234041452407836914e-01 4.761643409729003906e-01
1.942388564348220825e-01 -1.028216034173965454e-01 4.820654094219207764e-01
1.784144788980484009e-01 -8.228444308042526245e-02 4.871573746204376221e-01
1.666214764118194580e-01 -6.473971158266067505e-02 4.904885292053222656e-01
1.550918370485305786e-01 -4.603622853755950928e-02 4.930543005466461182e-01
1.382639855146408081e-01 -2.065505459904670715e-02 4.981813132762908936e-01
1.208928525447845459e-01 1.318964757956564426e-03 5.048750042915344238e-01
1.018470078706741333e-01 2.507039532065391541e-02 5.105130076408386230e-01
4.672794938087463379e-01 1.954225152730941772e-01 7.995335757732391357e-02
4.676935076713562012e-01 2.259894460439682007e-01 7.679602503776550293e-02
4.678386449813842773e-01 2.518408894538879395e-01 7.359451055526733398e-02
4.674940705299377441e-01 2.741426527500152588e-01 7.098472118377685547e-02
4.675252437591552734e-01 2.937887012958526611e-01 6.373189389705657959e-02
4.678112268447875977e-01 3.125536441802978516e-01 6.400035321712493896e-02
4.692185223102569580e-01 3.312939107418060303e-01 6.576748192310333252e-02
4.714151322841644287e-01 3.515129983425140381e-01 7.700771093368530273e-02
4.680156409740447998e-01 1.730452477931976318e-01 6.050138175487518311e-02
4.682785272598266602e-01 2.115139067173004150e-01 5.609487742185592651e-02
4.682338833808898926e-01 2.376297265291213989e-01 5.155310779809951782e-02
4.685706198215484619e-01 2.636027634143829346e-01 4.818717390298843384e-02
4.679582715034484863e-01 2.895717322826385498e-01 4.598114639520645142e-02
4.697450995445251465e-01 3.143070042133331299e-01 3.956462442874908447e-02
4.700953364372253418e-01 3.364026248455047607e-01 3.883243352174758911e-02
4.711109697818756104e-01 3.553411364555358887e-01 4.702631384134292603e-02
4.683859646320343018e-01 1.493284404277801514e-01 4.615386575460433960e-02
4.687954485416412354e-01 1.897638440132141113e-01 4.044353216886520386e-02
4.693254828453063965e-01 2.254543751478195190e-01 3.450731933116912842e-02
4.689407348632812500e-01 2.525604963302612305e-01 3.017389774322509766e-02
4.686854779720306396e-01 2.838316559791564941e-01 2.529377490282058716e-02
4.685541391372680664e-01 3.077594637870788574e-01 2.092176675796508789e-02
4.686514139175415039e-01 3.326850533485412598e-01 1.879699528217315674e-02
4.694802761077880859e-01 3.512644171714782715e-01 2.675165981054306030e-02
4.687098264694213867e-01 1.298346668481826782e-01 3.436946123838424683e-02
4.685319066047668457e-01 1.726053059101104736e-01 2.567437291145324707e-02
4.685056507587432861e-01 2.092306315898895264e-01 1.915175467729568481e-02
4.689278304576873779e-01 2.388585954904556274e-01 1.286863535642623901e-02
4.679902195930480957e-01 2.682217955589294434e-01 8.360184729099273682e-03
4.667846262454986572e-01 2.978765368461608887e-01 5.179882049560546875e-03
4.660322070121765137e-01 3.214581608772277832e-01 1.193813979625701904e-03
4.662175178527832031e-01 3.473042547702789307e-01 4.675388336181640625e-03
4.676160812377929688e-01 1.170878857374191284e-01 1.706315577030181885e-02
4.665013551712036133e-01 1.546151041984558105e-01 1.047611236572265625e-02
4.669718742370605469e-01 1.898342370986938477e-01 4.092365503311157227e-03
4.671239852905273438e-01 2.232902944087982178e-01 -1.261420547962188721e-03
4.667778015136718750e-01 2.513556182384490967e-01 -5.552392452955245972e-03
4.651514589786529541e-01 2.823261022567749023e-01 -1.246717944741249084e-02
4.637609422206878662e-01 3.111336231231689453e-01 -1.597360149025917053e-02
4.627396464347839355e-01 3.375678360462188721e-01 -1.751881465315818787e-02
4.655949175357818604e-01 1.032373905181884766e-01 -3.966443240642547607e-03
4.646975994110107422e-01 1.374207288026809692e-01 -6.225649267435073853e-03
4.641304314136505127e-01 1.695853471755981445e-01 -1.357279345393180847e-02
4.642221629619598389e-01 2.055407017469406128e-01 -1.805886253714561462e-02
4.638331532478332520e-01 2.382511943578720093e-01 -2.299011126160621643e-02
4.620907008647918701e-01 2.642938792705535889e-01 -2.939608320593833923e-02
4.606036841869354248e-01 2.952313423156738281e-01 -3.830697759985923767e-02
4.592049717903137207e-01 3.241555094718933105e-01 -4.104105010628700256e-02
4.622778892517089844e-01 9.215654432773590088e-02 -2.563862875103950500e-02
4.614540934562683105e-01 1.255367249250411987e-01 -2.978567779064178467e-02
4.605210423469543457e-01 1.564532220363616943e-01 -3.296135738492012024e-02
4.600253403186798096e-01 1.867758929729461670e-01 -3.970804810523986816e-02
4.599838852882385254e-01 2.213319391012191772e-01 -4.296738654375076294e-02
4.589469432830810547e-01 2.504435777664184570e-01 -4.988882318139076233e-02
4.566665887832641602e-01 2.745746374130249023e-01 -5.813595652580261230e-02
4.547323882579803467e-01 3.088850378990173340e-01 -6.528379023075103760e-02
4.551419317722320557e-01 8.151464164257049561e-02 -5.156819522380828857e-02
4.567874968051910400e-01 1.103634983301162720e-01 -5.436745658516883850e-02
4.562519788742065430e-01 1.445837318897247314e-01 -5.876654759049415588e-02
4.556236863136291504e-01 1.707772463560104370e-01 -6.120890751481056213e-02
4.551087021827697754e-01 2.029123008251190186e-01 -6.406333297491073608e-02
4.542247653007507324e-01 2.364489436149597168e-01 -6.733482331037521362e-02
4.522441029548645020e-01 2.626605927944183350e-01 -7.323855906724929810e-02
4.502982795238494873e-01 2.907698154449462891e-01 -8.015629649162292480e-02
3.544664680957794189e-01 -3.670732975006103516e-01 -2.514946758747100830e-01
3.502209186553955078e-01 -3.283339440822601318e-01 -2.527456283569335938e-01
3.456401228904724121e-01 -3.009131550788879395e-01 -2.574296593666076660e-01
3.415029644966125488e-01 -2.717006802558898926e-01 -2.618277072906494141e-01
3.381520211696624756e-01 -2.362742871046066284e-01 -2.660118043422698975e-01
3.333128392696380615e-01 -1.946628987789154053e-01 -2.717682421207427979e-01
3.244796991348266602e-01 -1.605460941791534424e-01 -2.779754102230072021e-01
3.128278851509094238e-01 -1.306380480527877808e-01 -2.850638628005981445e-01
3.407413959503173828e-01 -3.865969479084014893e-01 -2.673509716987609863e-01
3.345727324485778809e-01 -3.518463969230651855e-01 -2.735387682914733887e-01
3.314585685729980469e-01 -3.171011209487915039e-01 -2.778796851634979248e-01
3.247345089912414551e-01 -2.872601449489593506e-01 -2.827920913696289062e-01
3.167213797569274902e-01 -2.567505836486816406e-01 -2.883446514606475830e-01
3.088890910148620605e-01 -2.166749536991119385e-01 -2.933736145496368408e-01
3.003113865852355957e-01 -1.737152785062789917e-01 -3.004792928695678711e-01
2.903119325637817383e-01 -1.377594619989395142e-01 -3.101491630077362061e-01
3.275131583213806152e-01 -4.061885476112365723e-01 -2.844562232494354248e-01
3.163224458694458008e-01 -3.721992671489715576e-01 -2.914261221885681152e-01
3.090105652809143066e-01 -3.325295746326446533e-01 -2.960450351238250732e-01
3.035920262336730957e-01 -2.997127771377563477e-01 -3.006078004837036133e-01
2.972517013549804688e-01 -2.694436907768249512e-01 -3.056085407733917236e-01
2.875463068485260010e-01 -2.363113462924957275e-01 -3.140963017940521240e-01
2.778361737728118896e-01 -1.911409348249435425e-01 -3.227306902408599854e-01
2.678607106208801270e-01 -1.504894345998764038e-01 -3.309238553047180176e-01
3.110450804233551025e-01 -4.239475131034851074e-01 -2.961288094520568848e-01
2.997209727764129639e-01 -3.911637067794799805e-01 -3.033859729766845703e-01
2.938862442970275879e-01 -3.523809313774108887e-01 -3.100020587444305420e-01
2.881339788436889648e-01 -3.131547272205352783e-01 -3.144998252391815186e-01
2.789251804351806641e-01 -2.806839644908905029e-01 -3.229778409004211426e-01
2.700106799602508545e-01 -2.500393092632293701e-01 -3.305623233318328857e-01
2.595136761665344238e-01 -2.106487005949020386e-01 -3.377928733825683594e-01
2.502962350845336914e-01 -1.682920008897781372e-01 -3.449951410293579102e-01
2.958947122097015381e-01 -4.437055587768554688e-01 -3.064753115177154541e-01
2.841571569442749023e-01 -4.076609611511230469e-01 -3.161949515342712402e-01
2.747037410736083984e-01 -3.744436502456665039e-01 -3.257913291454315186e-01
2.685481607913970947e-01 -3.339680433273315430e-01 -3.327479362487792969e-01
2.594161927700042725e-01 -2.942288815975189209e-01 -3.407193422317504883e-01
2.502206265926361084e-01 -2.647886276245117188e-01 -3.470242619514465332e-01
2.407432496547698975e-01 -2.299314737319946289e-01 -3.531576693058013916e-01
2.263101786375045776e-01 -1.861102133989334106e-01 -3.614641427993774414e-01
2.756572663784027100e-01 -4.657087326049804688e-01 -3.203819692134857178e-01
2.608599066734313965e-01 -4.257959723472595215e-01 -3.352164924144744873e-01
2.504627108573913574e-01 -3.942427337169647217e-01 -3.458545506000518799e-01
2.434092462062835693e-01 -3.603228926658630371e-01 -3.528246581554412842e-01
2.344108521938323975e-01 -3.166035115718841553e-01 -3.602858185768127441e-01
2.246784269809722900e-01 -2.807804644107818604e-01 -3.658635914325714111e-01
2.123046517372131348e-01 -2.507358491420745850e-01 -3.720077872276306152e-01
1.942664086818695068e-01 -2.069518566131591797e-01 -3.794749081134796143e-01
2.441890686750411987e-01 -4.855264425277709961e-01 -3.442423641681671143e-01
2.336700260639190674e-01 -4.435597658157348633e-01 -3.542649447917938232e-01
2.230673134326934814e-01 -4.118215441703796387e-01 -3.626813590526580811e-01
2.117012292146682739e-01 -3.806961774826049805e-01 -3.713607192039489746e-01
2.019143551588058472e-01 -3.433716297149658203e-01 -3.779528141021728516e-01
1.928325891494750977e-01 -3.052788376808166504e-01 -3.814738094806671143e-01
1.831924617290496826e-01 -2.713731825351715088e-01 -3.844955563545227051e-01
1.703380048274993896e-01 -2.292706072330474854e-01 -3.889555335044860840e-01
2.034671455621719360e-01 -4.845644831657409668e-01 -3.696863055229187012e-01
2.028432935476303101e-01 -4.581615626811981201e-01 -3.725379705429077148e-01
1.935975849628448486e-01 -4.213460087776184082e-01 -3.786714673042297363e-01
1.831882596015930176e-01 -3.924356102943420410e-01 -3.849043846130371094e-01
1.758447140455245972e-01 -3.649958372116088867e-01 -3.880822956562042236e-01
1.686762571334838867e-01 -3.286971151828765869e-01 -3.913238942623138428e-01
1.598579883575439453e-01 -2.938913702964782715e-01 -3.944240212440490723e-01
1.447743028402328491e-01 -2.520366609096527100e-01 -4.010468721389770508e-01
-2.996572852134704590e-01 7.854989767074584961e-01 -2.825674116611480713e-01
-3.254513740539550781e-01 8.243974447250366211e-01 -2.666531205177307129e-01
-3.403378427028656006e-01 8.447322249412536621e-01 -2.563396394252777100e-01
-3.490163385868072510e-01 8.498914241790771484e-01 -2.372001707553863525e-01
-3.558695316314697266e-01 8.502415418624877930e-01 -1.987383067607879639e-01
-3.656306266784667969e-01 8.477756381034851074e-01 -1.449767500162124634e-01
-3.832056522369384766e-01 8.443968296051025391e-01 -8.684584498405456543e-02
-4.120248556137084961e-01 8.445768952369689941e-01 -1.433379203081130981e-02
-3.416119515895843506e-01 7.341427803039550781e-01 -2.334125041961669922e-01
-3.636867403984069824e-01 7.899371385574340820e-01 -2.281575500965118408e-01
-3.796277940273284912e-01 8.151028752326965332e-01 -2.135357260704040527e-01
-3.852083683013916016e-01 8.273481130599975586e-01 -2.025845348834991455e-01
-3.858937323093414307e-01 8.392918109893798828e-01 -1.928147375583648682e-01
-3.889658749103546143e-01 8.424636125564575195e-01 -1.567246019840240479e-01
-3.968358933925628662e-01 8.431234955787658691e-01 -1.037700772285461426e-01
-4.150197505950927734e-01 8.448806405067443848e-01 -4.078951478004455566e-02
-3.689348995685577393e-01 6.670182943344116211e-01 -2.023581117391586304e-01
-3.912755250930786133e-01 7.518134117126464844e-01 -1.847971379756927490e-01
-3.984777927398681641e-01 7.865503430366516113e-01 -1.740896999835968018e-01
-4.020689129829406738e-01 8.058906197547912598e-01 -1.669742465019226074e-01
-4.015094339847564697e-01 8.168344497680664062e-01 -1.631239652633666992e-01
-4.021025002002716064e-01 8.322407603263854980e-01 -1.517352908849716187e-01
-4.076641798019409180e-01 8.413612842559814453e-01 -1.160136088728904724e-01
-4.172640144824981689e-01 8.429918289184570312e-01 -5.854754894971847534e-02
-3.727149069309234619e-01 6.548262834548950195e-01 -2.234422415494918823e-01
-4.090124070644378662e-01 6.901225447654724121e-01 -1.455724239349365234e-01
-4.116660058498382568e-01 7.540232539176940918e-01 -1.379757076501846313e-01
-4.148445129394531250e-01 7.805247902870178223e-01 -1.299401819705963135e-01
-4.174163937568664551e-01 7.966298460960388184e-01 -1.240237057209014893e-01
-4.167604446411132812e-01 8.108856678009033203e-01 -1.222396492958068848e-01
-4.172446131706237793e-01 8.322243094444274902e-01 -1.128247231245040894e-01
-4.213052988052368164e-01 8.394330143928527832e-01 -8.352951705455780029e-02
-3.656535148620605469e-01 7.140948772430419922e-01 -2.322309017181396484e-01
-4.103691577911376953e-01 6.550894975662231445e-01 -1.679381132125854492e-01
-4.279206395149230957e-01 6.989892721176147461e-01 -9.778556972742080688e-02
-4.291542172431945801e-01 7.505599856376647949e-01 -9.250742197036743164e-02
-4.310681521892547607e-01 7.687557339668273926e-01 -8.766736090183258057e-02
-4.308207929134368896e-01 7.907641530036926270e-01 -8.646859228610992432e-02
-4.280448257923126221e-01 8.143324851989746094e-01 -9.072552621364593506e-02
-4.268242716789245605e-01 8.350073099136352539e-01 -8.260658383369445801e-02
-3.637022674083709717e-01 7.538959383964538574e-01 -2.170697897672653198e-01
-3.952690958976745605e-01 7.152917385101318359e-01 -1.784948706626892090e-01
-4.302504956722259521e-01 6.559962034225463867e-01 -1.204630285501480103e-01
-4.390065968036651611e-01 7.034555673599243164e-01 -6.240448355674743652e-02
-4.391321837902069092e-01 7.452732324600219727e-01 -6.049930304288864136e-02
-4.398774206638336182e-01 7.666686773300170898e-01 -5.441481620073318481e-02
-4.374411106109619141e-01 7.929943203926086426e-01 -5.474608391523361206e-02
-4.366620779037475586e-01 8.214049339294433594e-01 -5.798218399286270142e-02
-3.671864569187164307e-01 7.856608033180236816e-01 -2.047475576400756836e-01
-3.913857042789459229e-01 7.565097212791442871e-01 -1.671387255191802979e-01
-4.151096045970916748e-01 7.126433253288269043e-01 -1.379273980855941772e-01
-4.449821710586547852e-01 6.601563096046447754e-01 -7.735022902488708496e-02
-4.459730982780456543e-01 7.067171931266784668e-01 -3.269192576408386230e-02
-4.462228417396545410e-01 7.414394617080688477e-01 -2.706249058246612549e-02
-4.447467625141143799e-01 7.647780776023864746e-01 -2.108531445264816284e-02
-4.422951638698577881e-01 7.976446151733398438e-01 -2.062978595495223999e-02
-3.740385770797729492e-01 8.141099214553833008e-01 -1.899967193603515625e-01
-3.960176408290863037e-01 7.888222336769104004e-01 -1.520421653985977173e-01
-4.139857292175292969e-01 7.559165954589843750e-01 -1.182156503200531006e-01
-4.291114807128906250e-01 7.161554098129272461e-01 -9.305864572525024414e-02
-4.523811936378479004e-01 6.776505708694458008e-01 -3.863673657178878784e-02
-4.537540674209594727e-01 7.175779342651367188e-01 1.790076494216918945e-03
-4.523166716098785400e-01 7.449355721473693848e-01 1.082071661949157715e-02
-4.498037695884704590e-01 7.752058506011962891e-01 1.699614524841308594e-02
-4.377969503402709961e-01 5.467106699943542480e-01 2.050889581441879272e-01
-4.379425346851348877e-01 5.804881453514099121e-01 1.968763917684555054e-01
-4.378516376018524170e-01 6.130311489105224609e-01 1.926738470792770386e-01
-4.381860494613647461e-01 6.416941881179809570e-01 1.863490790128707886e-01
-4.396997392177581787e-01 6.700525283813476562e-01 1.849880218505859375e-01
-4.420668482780456543e-01 7.046754360198974609e-01 1.827834099531173706e-01
-4.425680637359619141e-01 7.366193532943725586e-01 1.811761558055877686e-01
-4.396416842937469482e-01 7.662929296493530273e-01 1.984290480613708496e-01
-4.443008601665496826e-01 5.287581682205200195e-01 1.879548132419586182e-01
-4.442937970161437988e-01 5.645291805267333984e-01 1.788497120141983032e-01
-4.467139840126037598e-01 5.970242023468017578e-01 1.687765717506408691e-01
-4.474526941776275635e-01 6.236754655838012695e-01 1.643334329128265381e-01
-4.478492438793182373e-01 6.530985236167907715e-01 1.577162444591522217e-01
-4.488103091716766357e-01 6.850195527076721191e-01 1.545789092779159546e-01
-4.489079117774963379e-01 7.250294685363769531e-01 1.515967547893524170e-01
-4.472101032733917236e-01 7.615272998809814453e-01 1.540899127721786499e-01
-4.480963349342346191e-01 5.107208490371704102e-01 1.731309741735458374e-01
-4.489966332912445068e-01 5.489159226417541504e-01 1.596287786960601807e-01
-4.502111077308654785e-01 5.817617774009704590e-01 1.464038640260696411e-01
-4.507882297039031982e-01 6.078903079032897949e-01 1.397338509559631348e-01
-4.517740607261657715e-01 6.370196342468261719e-01 1.342242360115051270e-01
-4.527556300163269043e-01 6.685074567794799805e-01 1.269578933715820312e-01
-4.538057744503021240e-01 7.098014354705810547e-01 1.252933889627456665e-01
-4.539470374584197998e-01 7.522420883178710938e-01 1.214329823851585388e-01
-4.507790803909301758e-01 4.958984851837158203e-01 1.521920114755630493e-01
-4.526669681072235107e-01 5.312604308128356934e-01 1.402533203363418579e-01
-4.533558487892150879e-01 5.649486780166625977e-01 1.277358233928680420e-01
-4.540779888629913330e-01 5.942782759666442871e-01 1.192306652665138245e-01
-4.552079737186431885e-01 6.201926469802856445e-01 1.151720732450485229e-01
-4.568321406841278076e-01 6.513065695762634277e-01 1.099670082330703735e-01
-4.572820067405700684e-01 6.929019689559936523e-01 1.005768626928329468e-01
-4.575282335281372070e-01 7.423108816146850586e-01 9.559714049100875854e-02
-4.537069797515869141e-01 4.728629589080810547e-01 1.262840032577514648e-01
-4.552848339080810547e-01 5.174947977066040039e-01 1.210791915655136108e-01
-4.566860795021057129e-01 5.467649698257446289e-01 1.112530231475830078e-01
-4.573203325271606445e-01 5.777279138565063477e-01 1.036061123013496399e-01
-4.586963057518005371e-01 6.055604815483093262e-01 9.579523652791976929e-02
-4.595922529697418213e-01 6.325716972351074219e-01 9.084904193878173828e-02
-4.601563811302185059e-01 6.725797057151794434e-01 8.230350911617279053e-02
-4.601551890373229980e-01 7.207216024398803711e-01 7.264024019241333008e-02
-4.565686285495758057e-01 4.469385445117950439e-01 1.007928699254989624e-01
-4.582448899745941162e-01 4.940122663974761963e-01 9.837960451841354370e-02
-4.595109522342681885e-01 5.293661952018737793e-01 9.321348369121551514e-02
-4.602560698986053467e-01 5.565736293792724609e-01 8.526208996772766113e-02
-4.608767628669738770e-01 5.863289237022399902e-01 7.900995016098022461e-02
-4.613440036773681641e-01 6.165703535079956055e-01 7.511118054389953613e-02
-4.618528485298156738e-01 6.520464420318603516e-01 7.027154415845870972e-02
-4.619051218032836914e-01 6.996318101882934570e-01 5.822671204805374146e-02
-4.579221010208129883e-01 4.314341545104980469e-01 5.968961864709854126e-02
-4.617216289043426514e-01 4.674628973007202148e-01 7.435007393360137939e-02
-4.619100689888000488e-01 5.059105157852172852e-01 6.950646638870239258e-02
-4.618153572082519531e-01 5.358732938766479492e-01 6.711896508932113647e-02
-4.626626074314117432e-01 5.633193254470825195e-01 6.057909131050109863e-02
-4.631353318691253662e-01 5.965166687965393066e-01 5.154773592948913574e-02
-4.631591439247131348e-01 6.317964196205139160e-01 4.822947829961776733e-02
-4.625248312950134277e-01 6.745178699493408203e-01 3.976690769195556641e-02
-4.588001072406768799e-01 4.829378128051757812e-01 5.637004971504211426e-03
-4.597588181495666504e-01 4.644157886505126953e-01 3.161643445491790771e-02
-4.623696804046630859e-01 4.873091578483581543e-01 4.159833490848541260e-02
-4.627411663532257080e-01 5.189655423164367676e-01 3.523476421833038330e-02
-4.630334973335266113e-01 5.498535633087158203e-01 3.228285908699035645e-02
-4.634819626808166504e-01 5.785018801689147949e-01 2.916836738586425781e-02
-4.633808434009552002e-01 6.113200187683105469e-01 2.188596129417419434e-02
-4.611370563507080078e-01 6.497020721435546875e-01 1.240358501672744751e-02
4.599295854568481445e-01 3.878986537456512451e-01 -1.302269101142883301e-02
4.595662355422973633e-01 4.252774119377136230e-01 -1.368284225463867188e-02
4.592953026294708252e-01 4.583179950714111328e-01 -1.570737361907958984e-02
4.588921666145324707e-01 4.874954223632812500e-01 -1.893433928489685059e-02
4.570831656455993652e-01 5.184698104858398438e-01 -2.434531599283218384e-02
4.540697634220123291e-01 5.494828224182128906e-01 -2.857873588800430298e-02
4.523373544216156006e-01 5.871121883392333984e-01 -3.021328896284103394e-02
4.551793336868286133e-01 6.148076057434082031e-01 -1.292465627193450928e-02
4.542382657527923584e-01 3.714047372341156006e-01 -3.529284149408340454e-02
4.541009366512298584e-01 4.106210768222808838e-01 -4.048942029476165771e-02
4.537830054759979248e-01 4.480951130390167236e-01 -4.293448477983474731e-02
4.528502821922302246e-01 4.782810211181640625e-01 -4.372462630271911621e-02
4.505503475666046143e-01 5.065047740936279297e-01 -4.996130615472793579e-02
4.477587342262268066e-01 5.364800691604614258e-01 -5.799487978219985962e-02
4.470920264720916748e-01 5.768734216690063477e-01 -6.411724537611007690e-02
4.468208849430084229e-01 6.205110549926757812e-01 -6.289313733577728271e-02
4.506142437458038330e-01 3.546497821807861328e-01 -5.170044302940368652e-02
4.499607980251312256e-01 3.933592140674591064e-01 -5.869285017251968384e-02
4.485119581222534180e-01 4.274257719516754150e-01 -6.548016518354415894e-02
4.464257657527923584e-01 4.623568654060363770e-01 -7.208655774593353271e-02
4.444724321365356445e-01 4.934900701045989990e-01 -7.837901264429092407e-02
4.429156780242919922e-01 5.230690240859985352e-01 -8.540986478328704834e-02
4.413208961486816406e-01 5.646561980247497559e-01 -9.381261467933654785e-02
4.398100674152374268e-01 6.067271232604980469e-01 -9.760834276676177979e-02
4.484764635562896729e-01 3.413553833961486816e-01 -6.764262914657592773e-02
4.461479187011718750e-01 3.745578229427337646e-01 -7.629661262035369873e-02
4.436812102794647217e-01 4.102067053318023682e-01 -8.826828002929687500e-02
4.418081343173980713e-01 4.455454945564270020e-01 -9.510152041912078857e-02
4.405013322830200195e-01 4.805529713630676270e-01 -1.000350713729858398e-01
4.383346140384674072e-01 5.092043876647949219e-01 -1.080213189125061035e-01
4.365115761756896973e-01 5.451304316520690918e-01 -1.138273179531097412e-01
4.334649443626403809e-01 5.901171565055847168e-01 -1.158767640590667725e-01
4.455547332763671875e-01 3.283246457576751709e-01 -8.424114435911178589e-02
