-4.685170352458953857e-01 3.813510537147521973e-01 6.277803331613540649e-02
1.893193721771240234e-01 1.648974567651748657e-01 5.004363656044006348e-01
-9.155303239822387695e-03 1.833165436983108521e-01 -5.385336279869079590e-01
-3.801819384098052979e-01 -5.277940034866333008e-01 -1.320889890193939209e-01
-4.451676309108734131e-01 2.656783163547515869e-01 3.142783045768737793e-01
-6.959211826324462891e-02 -2.455825172364711761e-02 -4.260220229625701904e-01
5.152943134307861328e-01 3.332698047161102295e-01 -1.934477388858795166e-01
-4.009237885475158691e-01 4.457002282142639160e-01 2.558250725269317627e-01
-2.739504575729370117e-01 -4.138024747371673584e-01 -3.351327180862426758e-01
4.999430105090141296e-02 -4.395202100276947021e-01 2.660411000251770020e-01
1.592587083578109741e-01 4.142757356166839600e-01 4.091363549232482910e-01
2.117682397365570068e-01 5.995212793350219727e-01 4.592541754245758057e-01
4.598616659641265869e-01 5.079302191734313965e-01 1.263612955808639526e-01
-3.843688666820526123e-01 -4.655881524085998535e-01 1.647166162729263306e-01
3.122829496860504150e-01 -2.560822367668151855e-01 3.495825827121734619e-01
-2.947862744331359863e-01 2.843599021434783936e-01 3.610267043113708496e-01
4.579753577709197998e-01 -1.398108899593353271e-01 1.781656891107559204e-01
-2.523600161075592041e-01 -2.038801908493041992e-01 -4.089142680168151855e-01
-3.218489885330200195e-01 5.341218709945678711e-01 3.527432680130004883e-01
-3.683287203311920166e-01 4.702205359935760498e-01 -4.190052151679992676e-01
1.865584105253219604e-01 5.854178071022033691e-01 -4.494332671165466309e-01
-1.453399658203125000e-01 1.346267461776733398e-01 4.283432662487030029e-01
-1.420509517192840576e-01 -4.319241046905517578e-01 -1.495874971151351929e-01
4.001266062259674072e-01 1.946436315774917603e-01 3.607717156410217285e-01
-2.433050274848937988e-01 -5.386435389518737793e-01 3.114878237247467041e-01
2.604437619447708130e-02 4.142757356166839600e-01 1.681078225374221802e-01
-4.775872230529785156e-01 1.171076744794845581e-01 -2.339098900556564331e-01
-5.634651780128479004e-01 -3.648800253868103027e-01 3.755554258823394775e-01
-3.762766420841217041e-01 3.282557129859924316e-01 -2.821307480335235596e-01
-2.240177392959594727e-01 5.995212793350219727e-01 -4.857434928417205811e-01
3.472232818603515625e-01 -2.514697313308715820e-01 1.739570051431655884e-01
-3.316649526823312044e-04 -1.993531733751296997e-02 4.303524792194366455e-01
6.729087233543395996e-01 -2.353441417217254639e-01 4.271906912326812744e-01
-4.344135820865631104e-01 -1.394862234592437744e-01 2.893145382404327393e-01
-6.977294385433197021e-02 4.142757356166839600e-01 4.032788276672363281e-01
-1.631873250007629395e-01 -1.733221858739852905e-01 4.568823575973510742e-01
-5.979799628257751465e-01 -1.491266787052154541e-01 2.939545810222625732e-01
-3.559904098510742188e-01 -4.456166923046112061e-01 -2.318152487277984619e-01
-2.376260608434677124e-01 -4.358001649379730225e-01 3.958149626851081848e-02
8.026231080293655396e-02 2.260993868112564087e-01 4.541592597961425781e-01
-7.817824184894561768e-02 5.954513549804687500e-01 -4.921192228794097900e-01
-5.283786058425903320e-01 5.995212793350219727e-01 -6.968905776739120483e-02
-4.556399881839752197e-01 -2.625311911106109619e-01 2.237575203180313110e-01
4.682708084583282471e-01 1.384356766939163208e-01 2.535661458969116211e-01
-3.940147161483764648e-01 -4.936384409666061401e-02 -1.642988175153732300e-01
-7.069521397352218628e-02 -2.597751021385192871e-01 4.617658257484436035e-01
-5.818889290094375610e-02 3.241453170776367188e-01 -4.667101800441741943e-01
2.077566683292388916e-01 4.252754151821136475e-02 4.767628312110900879e-01
4.913484454154968262e-01 4.376471042633056641e-01 -2.596327662467956543e-01
-4.384219944477081299e-01 5.799554586410522461e-01 -3.427707552909851074e-01
-5.709497928619384766e-01 -6.139751672744750977e-01 2.806283235549926758e-01
3.697879612445831299e-01 5.879421234130859375e-01 -4.043812453746795654e-01
-9.271258860826492310e-02 1.659408062696456909e-01 -4.478112161159515381e-01
-9.600897133350372314e-02 4.142757356166839600e-01 -2.736905217170715332e-01
-8.616577088832855225e-02 -4.030469059944152832e-01 3.409357666969299316e-01
1.182242706418037415e-01 -4.635452628135681152e-01 4.011515080928802490e-01
-2.408493161201477051e-01 2.140928804874420166e-02 3.651908338069915771e-01
-3.578940331935882568e-01 -3.815483152866363525e-01 -1.286448445171117783e-02
-3.041513860225677490e-01 4.605579078197479248e-01 4.652596712112426758e-01
-8.869116008281707764e-02 5.477695539593696594e-02 -5.162342786788940430e-01
3.372348248958587646e-01 -1.350041925907135010e-01 3.583744764328002930e-01
4.574715495109558105e-01 5.798186063766479492e-01 -1.457886546850204468e-01
-3.141570389270782471e-01 -2.830222249031066895e-01 -3.413105309009552002e-01
5.316573381423950195e-01 1.796807646751403809e-01 -7.805562764406204224e-02
-3.392856121063232422e-01 1.993080526590347290e-01 -4.202068150043487549e-01
1.894485652446746826e-01 4.910092055797576904e-01 -5.247595906257629395e-01
6.518353223800659180e-01 -1.713083237409591675e-01 3.205681145191192627e-01
4.110302925109863281e-01 2.899193949997425079e-02 1.526973247528076172e-01
8.071791380643844604e-02 4.142757356166839600e-01 -3.191944360733032227e-01
-4.441353976726531982e-01 4.532423913478851318e-01 -1.721244305372238159e-01
-2.447830289602279663e-01 3.396259844303131104e-01 -4.949429929256439209e-01
5.541785359382629395e-01 5.119126439094543457e-01 5.606713145971298218e-02
-6.725075840950012207e-02 4.142757356166839600e-01 -8.367408812046051025e-02
-4.770826697349548340e-01 5.002306699752807617e-01 -2.906671352684497833e-02
2.857559323310852051e-01 -5.387794971466064453e-01 2.742831110954284668e-01
-4.434173703193664551e-01 4.991672560572624207e-02 2.748534977436065674e-01
-2.621829211711883545e-01 4.892130494117736816e-01 -4.921084642410278320e-01
-2.936130464076995850e-01 4.142757356166839600e-01 -1.078975424170494080e-01
-3.596343696117401123e-01 1.309553533792495728e-02 -3.721325993537902832e-01
-1.837193220853805542e-01 4.142757356166839600e-01 9.818835556507110596e-02
1.199166774749755859e-01 -5.119053721427917480e-01 1.678748726844787598e-01
4.447205662727355957e-01 3.030083179473876953e-01 1.474142670631408691e-01
-9.443424642086029053e-02 3.998094499111175537e-01 -5.466896891593933105e-01
4.041177034378051758e-01 2.604565620422363281e-01 -2.302173078060150146e-01
-1.270634308457374573e-02 -5.023412108421325684e-01 8.316404372453689575e-02
2.206196039915084839e-01 3.282349407672882080e-01 -4.158198237419128418e-01
-3.546018302440643311e-01 -2.822248637676239014e-01 -1.415862739086151123e-01
-2.842268347740173340e-01 4.142757356166839600e-01 -3.035197556018829346e-01
4.631204605102539062e-01 2.426494359970092773e-01 -3.407827112823724747e-03
4.423699975013732910e-01 -1.379411965608596802e-01 2.947114408016204834e-01
3.490976691246032715e-01 3.394998908042907715e-01 3.151610195636749268e-01
6.398453712463378906e-01 -4.075160920619964600e-01 4.173090159893035889e-01
-6.081565618515014648e-01 -2.112667709589004517e-01 4.054173231124877930e-01
-3.042228519916534424e-01 -5.249201059341430664e-01 6.792019307613372803e-02
-4.711978137493133545e-01 -2.220123261213302612e-01 6.528721749782562256e-02
5.576894879341125488e-01 -8.347791433334350586e-02 3.717731535434722900e-01
2.672514319419860840e-01 -4.380104839801788330e-01 3.305683732032775879e-01
-4.129455089569091797e-01 -1.193722337484359741e-01 -3.985003381967544556e-02
-7.247905433177947998e-02 3.539470732212066650e-01 5.454454421997070312e-01
5.156697034835815430e-01 3.775975480675697327e-02 6.703555583953857422e-02
3.166102766990661621e-01 4.607196748256683350e-01 3.556701838970184326e-01
-2.256417423486709595e-01 -1.621360480785369873e-01 3.381429612636566162e-01
-4.340032637119293213e-01 5.021873116493225098e-01 3.480931818485260010e-01
2.985700368881225586e-01 4.113307595252990723e-01 4.663826823234558105e-01
-2.708363831043243408e-01 2.206643670797348022e-01 4.676160812377929688e-01
6.153304874897003174e-02 -1.247715651988983154e-01 4.080317914485931396e-01
3.723927140235900879e-01 8.390303701162338257e-02 3.709688484668731689e-01
-2.096556723117828369e-01 -3.711073696613311768e-01 3.890858590602874756e-01
-2.111743092536926270e-01 -1.367906201630830765e-02 4.666414558887481689e-01
-4.458718597888946533e-01 3.046812713146209717e-01 -1.459016799926757812e-01
2.344370037317276001e-01 3.216352164745330811e-01 4.055348932743072510e-01
-4.629447162151336670e-01 2.394253462553024292e-01 -2.699280716478824615e-02
-4.120457544922828674e-02 5.442476868629455566e-01 4.754717051982879639e-01
-4.109416306018829346e-01 -1.057938188314437866e-01 7.177286595106124878e-02
5.109247565269470215e-01 -2.485583573579788208e-01 2.510838806629180908e-01
-4.117614626884460449e-01 6.175527721643447876e-02 -1.647210568189620972e-01
-4.082674980163574219e-01 1.582525437697768211e-03 1.489516049623489380e-01
8.290372788906097412e-02 -4.161920864135026932e-03 5.067797899246215820e-01
-4.525015950202941895e-01 1.835559904575347900e-01 6.785974651575088501e-02
-2.824496626853942871e-01 4.142757356166839600e-01 2.733357548713684082e-01
4.121906161308288574e-01 4.143392741680145264e-01 -3.722856044769287109e-01
1.883367002010345459e-01 3.476615548133850098e-01 -5.189833045005798340e-01
-5.546330809593200684e-01 4.275105297565460205e-01 1.283492706716060638e-02
-4.564478397369384766e-01 -2.568094432353973389e-01 -1.079860478639602661e-01
-1.560831815004348755e-01 -5.196321606636047363e-01 2.238430082798004150e-01
3.193991780281066895e-01 -2.476870082318782806e-02 2.884872257709503174e-01
5.018603205680847168e-01 4.642517268657684326e-01 2.399437576532363892e-01
-1.706890314817428589e-01 -2.650212310254573822e-02 -4.831451773643493652e-01
1.720237880945205688e-01 4.142757356166839600e-01 2.081130072474479675e-02
4.649865627288818359e-01 3.206791281700134277e-01 2.916081845760345459e-01
-2.806105017662048340e-01 -3.551352620124816895e-01 -2.339443117380142212e-01
-1.899641454219818115e-01 4.741999804973602295e-01 4.361552596092224121e-01
-4.898762106895446777e-01 4.847531020641326904e-01 -2.652479410171508789e-01
-1.567476242780685425e-01 3.232367932796478271e-01 4.422028958797454834e-01
-3.103032708168029785e-01 -3.822855353355407715e-01 1.770409047603607178e-01
-3.272387385368347168e-01 -4.753600060939788818e-01 2.558298408985137939e-01
2.719021439552307129e-01 4.142757356166839600e-01 -3.330380022525787354e-01
4.661068320274353027e-01 3.866115510463714600e-01 -8.393244445323944092e-02
1.100864112377166748e-01 4.142757356166839600e-01 -1.890542209148406982e-01
-3.317931890487670898e-01 -3.189244121313095093e-02 -2.738866209983825684e-01
1.973742693662643433e-01 -2.980145439505577087e-02 3.812804520130157471e-01
-3.324409127235412598e-01 4.142757356166839600e-01 3.976560756564140320e-02
-3.638517558574676514e-01 3.945792093873023987e-02 3.712780475616455078e-01
-5.023028254508972168e-01 5.066693425178527832e-01 2.416417002677917480e-01
5.143457055091857910e-01 2.283799648284912109e-01 -1.747044175863265991e-01
2.768602371215820312e-01 2.271402776241302490e-01 4.647766649723052979e-01
2.849837243556976318e-01 -2.902559041976928711e-01 2.509023547172546387e-01
5.131344795227050781e-01 5.995212793350219727e-01 1.181004121899604797e-01
-3.089536428451538086e-01 2.738651931285858154e-01 -3.506765663623809814e-01
-4.344387724995613098e-02 1.124774888157844543e-01 4.468017816543579102e-01
-4.519045054912567139e-01 -4.594649970531463623e-01 3.010131716728210449e-01
-6.590040326118469238e-01 -5.196315646171569824e-01 3.257925808429718018e-01
-4.351629316806793213e-01 5.716389045119285583e-03 -7.735488936305046082e-03
-4.980285093188285828e-02 2.469067573547363281e-01 4.601235985755920410e-01
-2.856710553169250488e-01 -2.664936482906341553e-01 2.577616870403289795e-01
-3.320224881172180176e-01 4.142757356166839600e-01 -2.099094390869140625e-01
-4.156757295131683350e-01 -1.230212301015853882e-01 -2.704230844974517822e-01
1.686581522226333618e-01 -4.413230121135711670e-01 2.283924669027328491e-01
5.358372926712036133e-01 1.739942878484725952e-01 3.981993347406387329e-02
-2.621785998344421387e-01 -1.753160357475280762e-01 -3.088440001010894775e-01
-4.978927075862884521e-01 3.157645165920257568e-01 2.310055196285247803e-01
-7.566289603710174561e-02 -3.635799884796142578e-01 4.372889697551727295e-01
8.560784906148910522e-02 -3.397251963615417480e-01 3.572159111499786377e-01
-8.697637915611267090e-02 4.142757356166839600e-01 2.945024967193603516e-01
9.790693968534469604e-02 4.862603545188903809e-01 4.663871526718139648e-01
-4.386357963085174561e-01 4.016200006008148193e-01 -3.385992348194122314e-01
5.543497204780578613e-01 4.354287981986999512e-01 -4.073981195688247681e-02
-3.438977291807532310e-03 -4.278981387615203857e-01 1.617008149623870850e-01
-6.402450203895568848e-01 -3.159022033214569092e-01 4.241075813770294189e-01
2.666361331939697266e-01 4.076481163501739502e-01 -4.864284992218017578e-01
-5.313323140144348145e-01 3.086408972740173340e-01 1.345265954732894897e-01
-3.974792957305908203e-01 4.142757356166839600e-01 1.585740894079208374e-01
-4.502980113029479980e-01 -3.384210765361785889e-01 -1.979773491621017456e-02
4.125040471553802490e-01 4.997318983078002930e-01 -2.403447031974792480e-01
8.053495734930038452e-02 3.401272296905517578e-01 5.434773564338684082e-01
5.159620642662048340e-01 2.287647128105163574e-01 1.669931560754776001e-01
-5.443431138992309570e-01 4.772615432739257812e-01 1.168013364076614380e-01
-2.315730303525924683e-01 7.536388188600540161e-02 -3.809703588485717773e-01
-7.921759039163589478e-02 4.757710397243499756e-01 -4.710897207260131836e-01
9.953286498785018921e-02 5.229709744453430176e-01 -4.685736596584320068e-01
-5.702843666076660156e-01 -5.000752210617065430e-01 2.802951931953430176e-01
-4.412397742271423340e-01 8.807770907878875732e-02 -7.119620591402053833e-02
-2.494314163923263550e-01 -4.450045526027679443e-01 -1.866544485092163086e-01
-4.231443405151367188e-01 9.685398638248443604e-02 -3.166829347610473633e-01
-3.509998917579650879e-01 -2.964031398296356201e-01 1.402757018804550171e-01
-3.231079876422882080e-01 -1.668965518474578857e-01 3.642026782035827637e-01
1.352850794792175293e-01 -1.958135068416595459e-01 4.608383476734161377e-01
-4.912792146205902100e-01 -8.375739306211471558e-02 -1.056291982531547546e-01
3.056679666042327881e-01 4.142757356166839600e-01 -2.376643419265747070e-01
-4.022006392478942871e-01 2.198849916458129883e-01 -2.265244573354721069e-01
-1.799441128969192505e-01 -1.232187598943710327e-01 -3.742353916168212891e-01
3.779150545597076416e-01 4.142757356166839600e-01 -4.409821704030036926e-02
-3.898562490940093994e-01 3.322491049766540527e-01 2.630316913127899170e-01
5.562551021575927734e-01 -2.914946377277374268e-01 3.708201944828033447e-01
1.438748240470886230e-01 4.142757356166839600e-01 2.758095860481262207e-01
-1.623519659042358398e-01 3.174413740634918213e-01 -4.412969350814819336e-01
-2.702173292636871338e-01 1.606377065181732178e-01 3.654302656650543213e-01
3.484714329242706299e-01 3.229181468486785889e-01 -3.161002099514007568e-01
5.545014142990112305e-01 -1.425872147083282471e-01 2.725709974765777588e-01
2.800095826387405396e-02 7.857300341129302979e-02 5.247589945793151855e-01
-2.215871363878250122e-01 -5.171169042587280273e-01 -1.236326619982719421e-01
4.122654497623443604e-01 3.596291542053222656e-01 -2.300999462604522705e-01
3.416617810726165771e-01 -3.717331290245056152e-01 2.804635465145111084e-01
2.769559919834136963e-01 7.035356014966964722e-02 3.464595973491668701e-01
2.374630123376846313e-01 5.154538750648498535e-01 4.131523966789245605e-01
4.190383553504943848e-01 1.307644098997116089e-01 1.677919924259185791e-01
6.166014820337295532e-02 4.142757356166839600e-01 -5.511087924242019653e-02
-6.485794782638549805e-01 -5.434750765562057495e-02 3.353058993816375732e-01
-1.908187866210937500e-01 -4.383435845375061035e-01 1.788291782140731812e-01
-9.425075724720954895e-03 -3.180678188800811768e-01 3.722787797451019287e-01
-1.590493321418762207e-01 -2.190820127725601196e-01 -3.626046776771545410e-01
-2.692300677299499512e-01 -5.192566514015197754e-01 -2.857840433716773987e-02
4.005003347992897034e-02 4.142757356166839600e-01 -4.500797390937805176e-01
3.932743370532989502e-01 -6.915982067584991455e-02 1.555198729038238525e-01
2.245095819234848022e-01 1.828846484422683716e-01 -3.994944095611572266e-01
4.724707603454589844e-01 4.913741052150726318e-01 -6.479214876890182495e-02
2.338398247957229614e-01 4.142757356166839600e-01 1.848626285791397095e-01
-5.048800706863403320e-01 1.423804648220539093e-02 1.123406216502189636e-01
-4.471482336521148682e-01 1.543290168046951294e-01 2.937592566013336182e-01
-2.945829927921295166e-01 4.183768033981323242e-01 3.712516427040100098e-01
-5.262474417686462402e-01 1.171311885118484497e-01 6.550167500972747803e-02
4.358652234077453613e-01 4.142757356166839600e-01 1.158672273159027100e-01
-5.709749087691307068e-02 5.182295441627502441e-01 -5.552800893783569336e-01
2.133452892303466797e-01 4.935490787029266357e-01 -4.283430874347686768e-01
-1.803212910890579224e-01 2.312272936105728149e-01 4.246293008327484131e-01
5.492087006568908691e-01 5.657665133476257324e-01 -9.981516003608703613e-02
-3.639238476753234863e-01 1.345304697751998901e-01 3.881749212741851807e-01
-3.967440724372863770e-01 1.024592816829681396e-01 2.086741775274276733e-01
-5.138407945632934570e-01 1.334976404905319214e-01 -1.401038765907287598e-01
4.080629944801330566e-01 5.030426383018493652e-01 3.783326745033264160e-01
9.714131802320480347e-02 -3.551245480775833130e-02 4.169464409351348877e-01
1.211850717663764954e-01 4.121801853179931641e-01 -5.419941544532775879e-01
-3.674336969852447510e-01 -8.524958044290542603e-02 3.407123386859893799e-01
3.008686602115631104e-01 1.005692705512046814e-01 4.341340959072113037e-01
5.494000315666198730e-01 3.632717430591583252e-01 5.158169940114021301e-02
-2.005993723869323730e-01 5.207952857017517090e-01 5.190652608871459961e-01
-2.821272015571594238e-01 4.948202073574066162e-01 -3.855991363525390625e-01
1.860666871070861816e-01 2.410633414983749390e-01 4.231843054294586182e-01
6.370288133621215820e-01 -7.713548094034194946e-02 3.132660984992980957e-01
-5.213674306869506836e-01 4.603327810764312744e-02 1.224262756295502186e-03
-6.368853896856307983e-02 -1.919951438903808594e-01 3.947687149047851562e-01
-1.077287942171096802e-01 -4.377569556236267090e-01 2.327770441770553589e-01
3.267266452312469482e-01 1.536497324705123901e-01 3.148463666439056396e-01
-2.148787081241607666e-01 4.142757356166839600e-01 1.945792436599731445e-01
1.921921819448471069e-01 1.027211919426918030e-01 4.047552049160003662e-01
-2.995798587799072266e-01 1.090477779507637024e-01 -4.383285641670227051e-01
1.221603155136108398e-02 2.379310131072998047e-01 -4.636533558368682861e-01
-1.990526616573333740e-01 4.195505082607269287e-01 -5.184481143951416016e-01
-3.623476028442382812e-01 -1.923191994428634644e-01 -3.198583126068115234e-01
4.499520063400268555e-01 1.763044744729995728e-01 8.036741614341735840e-02
4.457691013813018799e-01 5.358588099479675293e-01 -3.353039622306823730e-01
-3.485843241214752197e-01 -3.792715966701507568e-01 8.316632360219955444e-02
8.771613240242004395e-02 1.554241478443145752e-01 -5.286131501197814941e-01
-5.154875516891479492e-01 2.488564252853393555e-01 -1.772571206092834473e-01
-4.902982711791992188e-01 -3.307445347309112549e-01 3.266649842262268066e-01
-4.733841717243194580e-01 3.929766416549682617e-01 2.854631841182708740e-01
3.255420029163360596e-01 2.563361227512359619e-01 -4.370929896831512451e-01
-6.525355577468872070e-02 4.142757356166839600e-01 1.092136055231094360e-01
-5.188119411468505859e-01 -1.155104786157608032e-01 2.549118995666503906e-01
7.404260337352752686e-02 -3.115386962890625000e-01 4.497737884521484375e-01
-6.083622574806213379e-01 -1.065633744001388550e-01 4.055494964122772217e-01
2.453791797161102295e-01 4.142757356166839600e-01 -1.328218132257461548e-01
-1.998038887977600098e-01 -2.536071836948394775e-01 4.242271482944488525e-01
3.998841345310211182e-02 -2.015182375907897949e-01 4.779101908206939697e-01
4.153079390525817871e-01 5.089305043220520020e-01 2.340695708990097046e-01
1.293123513460159302e-01 3.191898167133331299e-01 -4.518766999244689941e-01
-7.642517983913421631e-02 -4.916675388813018799e-02 5.006697177886962891e-01
8.280951529741287231e-02 -5.236759185791015625e-01 2.907531261444091797e-01
-1.699824780225753784e-01 -5.111781954765319824e-01 1.049812883138656616e-01
-6.144762635231018066e-01 -4.542493820190429688e-01 4.096431732177734375e-01
1.599732190370559692e-01 5.730304121971130371e-01 5.334066152572631836e-01
4.187714755535125732e-01 -1.354047097265720367e-02 2.955759763717651367e-01
-3.827204406261444092e-01 2.690310776233673096e-01 3.875576555728912354e-01
-4.258515238761901855e-01 -3.880356848239898682e-01 2.090706378221511841e-01
5.978883504867553711e-01 -2.419444024562835693e-01 2.939732372760772705e-01
-5.291641354560852051e-01 -6.638921499252319336e-01 3.482235074043273926e-01
-1.588892042636871338e-01 1.576508581638336182e-01 -5.121002793312072754e-01
-1.168465465307235718e-01 6.172842159867286682e-02 -4.282844662666320801e-01
-4.808855950832366943e-01 -1.795442253351211548e-01 -5.811735987663269043e-02
-4.607087075710296631e-01 -5.177284777164459229e-02 3.028553426265716553e-01
5.070345997810363770e-01 5.341669321060180664e-01 -2.328415513038635254e-01
2.549326121807098389e-01 -1.020463332533836365e-01 4.274169504642486572e-01
-3.462327420711517334e-01 5.411752462387084961e-01 -3.302406966686248779e-01
-1.657338589429855347e-01 3.609523773193359375e-01 5.256561040878295898e-01
-9.446989744901657104e-03 5.358284115791320801e-01 -4.785240888595581055e-01
-3.617017269134521484e-01 5.311647802591323853e-02 -2.554830908775329590e-01
-4.050942063331604004e-01 2.943754196166992188e-01 -3.697923421859741211e-01
2.738409638404846191e-01 -3.392129540443420410e-01 3.561917841434478760e-01
-5.254226922988891602e-01 5.772485136985778809e-01 1.877251863479614258e-01
-3.314853310585021973e-01 -3.831949830055236816e-01 -1.347931176424026489e-01
4.588203728199005127e-01 -3.823476135730743408e-01 3.057166934013366699e-01
-5.321578383445739746e-01 -1.295383125543594360e-01 3.546334207057952881e-01
-3.908622264862060547e-01 -1.933676600456237793e-01 -8.911306411027908325e-02
-5.647910013794898987e-02 2.749672532081604004e-01 -5.439097881317138672e-01
4.851210415363311768e-01 6.789067387580871582e-02 1.977527886629104614e-01
-1.012647747993469238e-01 1.510785222053527832e-01 5.245605111122131348e-01
-8.769407868385314941e-02 -4.236486256122589111e-01 -5.890547856688499451e-02
-2.306084930896759033e-01 4.215628206729888916e-01 5.036507844924926758e-01
-1.701893955469131470e-01 5.363737344741821289e-01 -4.473998546600341797e-01
3.723298907279968262e-01 5.835446715354919434e-01 -3.101200759410858154e-01
-1.452384591102600098e-01 4.142757356166839600e-01 -1.304740756750106812e-01
-5.283061265945434570e-01 5.376582741737365723e-01 -1.818593740463256836e-01
-4.757679998874664307e-02 -4.481901824474334717e-01 4.195021092891693115e-01
-3.824378848075866699e-01 5.995212793350219727e-01 3.701658546924591064e-01
6.064530834555625916e-02 2.500338256359100342e-01 5.395537614822387695e-01
-6.211118102073669434e-01 -3.738010525703430176e-01 3.053632974624633789e-01
4.602381885051727295e-01 5.501980781555175781e-01 3.147960007190704346e-01
-4.643767178058624268e-01 -1.724197715520858765e-01 1.422438025474548340e-01
-1.664382778108119965e-02 4.331033527851104736e-01 4.741676449775695801e-01
-9.608510881662368774e-02 -5.036439895629882812e-01 4.787398502230644226e-02
-3.925189375877380371e-01 -2.177541702985763550e-01 2.705847322940826416e-01
2.178719639778137207e-01 -2.302481979131698608e-01 3.267189562320709229e-01
2.900530099868774414e-01 2.647502720355987549e-01 3.626300394535064697e-01
-9.100700169801712036e-02 5.587856173515319824e-01 5.493611097335815430e-01
3.020533025264739990e-01 5.830419659614562988e-01 3.762131035327911377e-01
1.469580978155136108e-01 4.002215564250946045e-01 5.326759219169616699e-01
5.996263623237609863e-01 -1.909203231334686279e-01 3.998011946678161621e-01
-3.771697229240089655e-04 4.142757356166839600e-01 -2.680051922798156738e-01
4.680784642696380615e-01 3.265404999256134033e-01 4.067165032029151917e-02
-1.374842822551727295e-01 2.848342433571815491e-02 4.162622094154357910e-01
4.458274245262145996e-01 2.708849012851715088e-01 -1.353662014007568359e-01
-1.638268232345581055e-01 -4.279916584491729736e-01 -1.165468059480190277e-02
-2.560232281684875488e-01 2.517245411872863770e-01 -4.811680614948272705e-01
7.317851483821868896e-02 4.142757356166839600e-01 3.727929294109344482e-01
-5.687646269798278809e-01 -2.696079015731811523e-01 2.795494198799133301e-01
-2.499443590641021729e-01 -1.167444586753845215e-01 -4.291479885578155518e-01
-3.885036706924438477e-01 -5.322661995887756348e-01 9.546181559562683105e-02
-1.853496879339218140e-01 1.704099625349044800e-01 5.027686357498168945e-01
-2.420525997877120972e-01 3.153780102729797363e-01 -4.025570154190063477e-01
1.723901778459548950e-01 -3.890623450279235840e-01 4.018247425556182861e-01
-2.890950143337249756e-01 -4.448465406894683838e-01 1.109709069132804871e-01
-4.234084486961364746e-01 -2.546007037162780762e-01 -2.044325321912765503e-01
-3.156068548560142517e-02 2.672899067401885986e-01 5.442112684249877930e-01
2.816458046436309814e-01 5.927652716636657715e-01 -4.076014161109924316e-01
1.351867765188217163e-01 2.779725193977355957e-01 -5.298836827278137207e-01
-2.915753722190856934e-01 -4.152045547962188721e-01 3.178845345973968506e-01
8.914104104042053223e-02 3.768884241580963135e-01 4.639576077461242676e-01
-4.790460765361785889e-01 5.846928358078002930e-01 7.641252875328063965e-02
-3.016707003116607666e-01 4.152975380420684814e-01 -4.666420519351959229e-01
-4.690757393836975098e-01 3.485758900642395020e-01 -4.667374491691589355e-02
4.864978492259979248e-01 -7.694359123706817627e-02 1.254886537790298462e-01
3.799122571945190430e-01 4.252080321311950684e-01 4.033086895942687988e-01
4.812586903572082520e-01 2.418645322322845459e-01 2.516281008720397949e-01
-2.927902340888977051e-01 -5.319432239048182964e-04 -4.250764548778533936e-01
-5.213655233383178711e-01 2.236600518226623535e-01 1.454520374536514282e-01
5.092873573303222656e-01 3.151855766773223877e-01 2.031001746654510498e-01
1.171145960688591003e-02 -6.270700693130493164e-02 5.041290521621704102e-01
-2.611126005649566650e-01 -7.777041196823120117e-02 3.304952681064605713e-01
4.539009332656860352e-01 4.876414537429809570e-01 -1.487552523612976074e-01
2.648785114288330078e-01 -7.862144708633422852e-02 3.273333013057708740e-01
-4.460812807083129883e-01 3.437431156635284424e-01 1.522130370140075684e-01
3.870112001895904541e-01 -1.524581462144851685e-01 1.314787864685058594e-01
-4.204018712043762207e-01 -4.288382232189178467e-01 8.449283242225646973e-02
-8.949442766606807709e-03 -4.405162036418914795e-01 3.417571485042572021e-01
-3.905318975448608398e-01 2.271344512701034546e-01 2.462673038244247437e-01
-4.793417751789093018e-01 3.155582398176193237e-02 1.991390585899353027e-01
2.465559244155883789e-01 4.142757356166839600e-01 3.728478550910949707e-01
-4.126846790313720703e-03 9.332125633955001831e-02 -5.283587574958801270e-01
-3.580921888351440430e-01 -1.192133799195289612e-01 2.078827172517776489e-01
3.854656815528869629e-01 2.944081723690032959e-01 -3.893074691295623779e-01
-3.081519901752471924e-01 -5.316842794418334961e-01 -1.780275553464889526e-01
2.850062251091003418e-01 4.142757356166839600e-01 -4.365941137075424194e-02
-3.664504587650299072e-01 5.058379769325256348e-01 4.197976887226104736e-01
-3.486294150352478027e-01 -5.388786792755126953e-01 1.898812055587768555e-01
-1.464845389127731323e-01 -4.266961514949798584e-01 4.024492800235748291e-01
-4.834260344505310059e-01 2.697036266326904297e-01 -2.543020546436309814e-01
3.650872707366943359e-01 5.017573237419128418e-01 -4.224537014961242676e-01
-1.477407515048980713e-01 -1.817452162504196167e-01 3.737228810787200928e-01
-6.403854489326477051e-01 -5.713525414466857910e-01 3.909619450569152832e-01
4.087662398815155029e-01 3.436334729194641113e-01 2.322870194911956787e-01
4.463002085685729980e-02 -5.124863386154174805e-01 2.070171535015106201e-01
8.230563998222351074e-02 4.142757356166839600e-01 8.008277416229248047e-02
1.754530332982540131e-02 5.500835180282592773e-01 5.564664602279663086e-01
-3.562139570713043213e-01 1.670226901769638062e-01 -2.854462265968322754e-01
-2.378430217504501343e-01 5.400513410568237305e-01 4.133408665657043457e-01
-5.200784206390380859e-01 -2.047929018735885620e-01 2.555374205112457275e-01
-2.212685942649841309e-01 -2.782186865806579590e-01 3.112090528011322021e-01
-2.820020616054534912e-01 1.556324865669012070e-02 -3.348607420921325684e-01
1.232138201594352722e-01 -2.580059468746185303e-01 3.664432764053344727e-01
4.334560930728912354e-01 2.155552357435226440e-01 1.562849879264831543e-01
-1.147584691643714905e-01 2.470849901437759399e-01 -4.501123130321502686e-01
2.603437006473541260e-01 4.951032102108001709e-01 4.914327561855316162e-01
-3.797480463981628418e-01 -1.404290944337844849e-01 -1.571758389472961426e-01
-2.465106248855590820e-01 -3.014890849590301514e-01 -3.883020579814910889e-01
1.197956949472427368e-01 8.603184670209884644e-02 5.121353268623352051e-01
-1.583480536937713623e-01 3.471679687500000000e-01 -5.286251306533813477e-01
-4.539643228054046631e-01 1.495632827281951904e-01 -8.404421620070934296e-03
-2.446420490741729736e-01 4.142757356166839600e-01 4.108959436416625977e-02
1.040286496281623840e-01 4.999632239341735840e-01 -5.486960411071777344e-01
-5.343759059906005859e-01 2.335850745439529419e-01 -9.740472584962844849e-02
-4.100877642631530762e-01 -4.734669029712677002e-01 -7.624217867851257324e-02
-4.442256987094879150e-01 4.929171800613403320e-01 -3.362568616867065430e-01
2.823967933654785156e-01 -2.102777808904647827e-01 2.778244912624359131e-01
-2.931787073612213135e-01 8.579883724451065063e-02 3.367431163787841797e-01
-5.471171140670776367e-01 3.369722366333007812e-01 5.782310292124748230e-02
-2.335238456726074219e-01 3.522551655769348145e-01 4.084085822105407715e-01
-8.270269632339477539e-02 -5.279743671417236328e-01 3.209863305091857910e-01
-4.220858812332153320e-01 -2.205309085547924042e-02 -9.090474992990493774e-02
-6.545988917350769043e-01 -6.322657465934753418e-01 3.363100886344909668e-01
5.276236534118652344e-01 9.519794583320617676e-02 8.241404779255390167e-03
-8.339617401361465454e-02 4.142757356166839600e-01 9.537976235151290894e-03
-5.135793089866638184e-01 -4.220907986164093018e-01 3.422211110591888428e-01
5.308949947357177734e-01 5.008610486984252930e-01 1.685071885585784912e-01
-3.154229819774627686e-01 -2.552724778652191162e-01 -2.262123078107833862e-01
-7.359275966882705688e-02 3.399016261100769043e-01 4.638819694519042969e-01
-5.183321237564086914e-01 4.284286797046661377e-01 -1.989597976207733154e-01
-1.907569319009780884e-01 -9.551587700843811035e-02 4.608583152294158936e-01
-3.772715330123901367e-01 5.263012647628784180e-01 2.919618189334869385e-01
-9.714692831039428711e-02 4.142757356166839600e-01 -4.137995839118957520e-01
-4.172350466251373291e-01 3.677554428577423096e-01 -2.225148528814315796e-01
-4.065321683883666992e-01 1.973966509103775024e-01 3.547390401363372803e-01
-3.212300837039947510e-01 2.802479565143585205e-01 4.410479962825775146e-01
9.119094163179397583e-02 -5.375256538391113281e-01 3.779198825359344482e-01
4.414325058460235596e-01 7.354052364826202393e-02 5.219295620918273926e-02
-4.305901229381561279e-01 -4.192647337913513184e-01 -8.406719192862510681e-03
4.435521662235260010e-01 -2.157144546508789062e-01 2.178566008806228638e-01
-4.598772227764129639e-01 4.519230425357818604e-01 1.211476176977157593e-01
1.407153606414794922e-01 3.151164054870605469e-01 4.467244446277618408e-01
-4.720872938632965088e-01 -5.618595480918884277e-01 3.144963681697845459e-01
4.824189543724060059e-01 2.567052245140075684e-01 -2.537965774536132812e-01
1.605910658836364746e-01 1.896212995052337646e-01 -5.151170492172241211e-01
3.681506514549255371e-01 -2.186548709869384766e-02 2.232725471258163452e-01
-4.653975963592529297e-01 4.175238013267517090e-01 -9.762070327997207642e-02
-3.427202403545379639e-01 -2.682648003101348877e-01 3.155380785465240479e-01
3.718727529048919678e-01 3.974983096122741699e-01 -2.941123843193054199e-01
-2.024449408054351807e-01 4.142757356166839600e-01 -3.294983208179473877e-01
-3.223855495452880859e-01 -8.222015947103500366e-02 2.706910073757171631e-01
-4.605665802955627441e-01 3.002401292324066162e-01 8.524614572525024414e-02
-4.369771480560302734e-02 -4.227356314659118652e-01 7.659509032964706421e-02
-6.092655062675476074e-01 -6.963485479354858398e-01 3.042753338813781738e-01
-2.517314553260803223e-01 -1.771617680788040161e-01 4.133914709091186523e-01
-8.847072720527648926e-02 -5.072200894355773926e-01 1.284300088882446289e-01
-9.550826996564865112e-02 4.590703547000885010e-01 4.663163125514984131e-01
2.713823914527893066e-01 3.169507384300231934e-01 -4.778454899787902832e-01
-2.953945100307464600e-01 1.875239983201026917e-02 4.248937964439392090e-01
1.153173521161079407e-01 1.920607835054397583e-01 5.256710052490234375e-01
2.732179760932922363e-01 2.743413150310516357e-01 -3.783034980297088623e-01
-4.008487761020660400e-01 1.404120177030563354e-01 -2.125710844993591309e-01
-3.506574928760528564e-01 3.778472244739532471e-01 3.168300986289978027e-01
-2.244751006364822388e-01 -4.063436985015869141e-01 -2.719616889953613281e-01
-2.494842410087585449e-01 -1.005866229534149170e-01 -3.361280560493469238e-01
-9.967786259949207306e-03 4.042137563228607178e-01 5.527561306953430176e-01
9.164684265851974487e-02 -4.332885444164276123e-01 1.973825693130493164e-01
3.727885782718658447e-01 4.342470765113830566e-01 2.936313748359680176e-01
3.170995414257049561e-02 3.211492896080017090e-01 -4.699774682521820068e-01
1.695087403059005737e-01 -5.217713713645935059e-01 2.336444258689880371e-01
-4.840179979801177979e-01 5.686075687408447266e-01 -2.776625156402587891e-01
-3.550966382026672363e-01 -9.765107184648513794e-02 -2.225778698921203613e-01
-4.219982326030731201e-01 5.364786982536315918e-01 2.235157042741775513e-01
3.902591168880462646e-01 5.792135596275329590e-01 3.961243927478790283e-01
3.401870131492614746e-01 2.095217406749725342e-01 4.187983274459838867e-01
-2.138346619904041290e-02 -1.261573284864425659e-01 4.123188257217407227e-01
-3.961402475833892822e-01 5.563282966613769531e-01 -2.695200145244598389e-01
1.644548326730728149e-01 5.266423821449279785e-01 4.478519558906555176e-01
2.704200744628906250e-01 3.122787773609161377e-01 4.762406945228576660e-01
-3.193068802356719971e-01 -4.462336897850036621e-01 1.372913364320993423e-02
-3.386171162128448486e-01 -2.161433100700378418e-01 2.039274424314498901e-01
-1.542879641056060791e-01 -4.493064582347869873e-01 3.019695281982421875e-01
4.027106761932373047e-01 3.374501168727874756e-01 3.742465078830718994e-01
-5.249358415603637695e-01 3.283139467239379883e-01 -1.651069521903991699e-01
-2.840955257415771484e-01 1.870795935392379761e-01 -3.601538538932800293e-01
4.531021118164062500e-01 1.866136491298675537e-01 -6.666778028011322021e-02
2.437563389539718628e-01 4.228041470050811768e-01 -4.082865417003631592e-01
-3.803866803646087646e-01 4.142757356166839600e-01 -1.450847238302230835e-01
2.188149839639663696e-01 -1.724931597709655762e-01 4.333630204200744629e-01
-3.755497634410858154e-01 -2.840147316455841064e-01 6.595253199338912964e-02
-2.814626991748809814e-01 4.142757356166839600e-01 -3.828278481960296631e-01
-2.023796588182449341e-01 2.792486846446990967e-01 5.063309669494628906e-01
4.768012464046478271e-01 4.928970336914062500e-01 1.860192790627479553e-02
-4.597431719303131104e-01 3.264589011669158936e-01 -3.034636676311492920e-01
4.708079397678375244e-01 -2.235832996666431427e-02 1.987942457199096680e-01
-4.569098651409149170e-01 5.242612361907958984e-01 -1.409306675195693970e-01
-3.648162484169006348e-01 -3.285827636718750000e-01 -7.048607617616653442e-02
-1.503821909427642822e-01 -4.497333988547325134e-02 -4.010541141033172607e-01
3.779339790344238281e-01 -6.827461719512939453e-02 3.340257704257965088e-01
2.412363737821578979e-01 5.742514729499816895e-01 -5.044352412223815918e-01
-3.982976973056793213e-01 -3.759083747863769531e-01 -1.927884221076965332e-01
-3.234641626477241516e-02 3.524243235588073730e-01 -5.519410967826843262e-01
-4.741208851337432861e-01 4.796058535575866699e-01 4.943455010652542114e-02
1.447393894195556641e-01 1.756727993488311768e-01 4.331030845642089844e-01
-3.922061324119567871e-01 5.485159754753112793e-01 -3.969818949699401855e-01
-6.422731094062328339e-03 1.824794411659240723e-01 4.565129876136779785e-01
-5.504585504531860352e-01 3.942223191261291504e-01 -5.806372687220573425e-02
7.139064073562622070e-01 -1.817214190959930420e-01 3.659951686859130859e-01
-4.445202350616455078e-01 -1.687484979629516602e-01 2.182725667953491211e-01
-8.839224278926849365e-02 4.142757356166839600e-01 -1.831148564815521240e-01
-4.844189584255218506e-01 1.938374489545822144e-01 -2.391465455293655396e-01
-4.915241599082946777e-01 2.007103264331817627e-01 2.218600660562515259e-01
2.318690270185470581e-01 4.233992099761962891e-01 5.031437277793884277e-01
-2.016827017068862915e-01 -4.337727427482604980e-01 -9.639625996351242065e-02
-5.565848350524902344e-01 4.924696683883666992e-01 -2.858417853713035583e-02
4.369603991508483887e-01 8.051841706037521362e-02 2.934539914131164551e-01
3.719648718833923340e-01 2.036507725715637207e-01 -2.710029780864715576e-01
2.963718771934509277e-01 3.475584983825683594e-01 -3.670072555541992188e-01
4.305124282836914062e-02 -4.742939770221710205e-01 4.131411314010620117e-01
3.862313628196716309e-01 1.424476057291030884e-01 2.363199293613433838e-01
2.886637151241302490e-01 -1.878690123558044434e-01 3.858190178871154785e-01
1.897800713777542114e-01 4.142757356166839600e-01 -3.297593593597412109e-01
-3.728476464748382568e-01 -5.351523756980895996e-01 -4.985575005412101746e-02
-4.820514321327209473e-01 4.832803457975387573e-02 -2.003440856933593750e-01
-2.852558791637420654e-01 4.142757356166839600e-01 -2.389997988939285278e-02
3.891922235488891602e-01 4.142757356166839600e-01 4.242896288633346558e-02
-2.006088793277740479e-01 -4.761472344398498535e-01 3.632563948631286621e-01
5.237725973129272461e-01 4.086937904357910156e-01 -1.836138367652893066e-01
-2.625920176506042480e-01 -2.489294409751892090e-01 -2.881461679935455322e-01
-1.935991793870925903e-01 -8.991220593452453613e-02 3.719714879989624023e-01
-1.961773037910461426e-01 9.605921059846878052e-02 4.891344904899597168e-01
4.586141109466552734e-01 -2.374603152275085449e-01 3.055717945098876953e-01
-4.648798704147338867e-02 4.142757356166839600e-01 2.280195653438568115e-01
-3.332882821559906006e-01 4.595645070075988770e-01 -3.408758640289306641e-01
6.511946767568588257e-02 4.142757356166839600e-01 2.455549538135528564e-01
-2.992317080497741699e-01 -4.892448782920837402e-01 -2.845579981803894043e-01
1.994258165359497070e-01 -4.800628125667572021e-01 3.626736700534820557e-01
-1.523064821958541870e-01 5.995212793350219727e-01 -5.109491348266601562e-01
-4.431660175323486328e-01 -2.778785228729248047e-01 1.379084587097167969e-01
3.521640896797180176e-01 2.496813982725143433e-01 3.020098805427551270e-01
-3.060076236724853516e-01 5.965156555175781250e-01 3.925748169422149658e-01
-3.420983552932739258e-01 2.500361502170562744e-01 3.130787611007690430e-01
-2.778121232986450195e-01 -3.484195172786712646e-01 3.505105972290039062e-01
-4.765768945217132568e-01 -5.446066334843635559e-02 -1.737266331911087036e-01
4.428864717483520508e-01 3.897752165794372559e-01 -1.680106669664382935e-01
-5.735623836517333984e-01 -6.053816676139831543e-01 3.823014199733734131e-01
-4.277846515178680420e-01 -7.690534694120287895e-04 7.616569846868515015e-02
-4.335150718688964844e-01 1.890981048345565796e-01 1.498115211725234985e-01
-1.672642529010772705e-01 -5.082594752311706543e-01 2.386147342622280121e-02
-1.720443516969680786e-01 3.968491852283477783e-01 4.404086172580718994e-01
1.747320443391799927e-01 2.310993820428848267e-01 -4.286907017230987549e-01
1.181424483656883240e-01 -4.273505508899688721e-01 3.247763812541961670e-01
-4.076254069805145264e-01 -5.542528629302978516e-01 2.338453233242034912e-01
-5.409198999404907227e-01 3.842473030090332031e-01 1.158836260437965393e-01
3.162923753261566162e-01 -3.268728256225585938e-01 1.933725774288177490e-01
-1.565227508544921875e-01 -3.478699922561645508e-01 3.306283354759216309e-01
1.442553997039794922e-01 -1.492800712585449219e-01 3.818860352039337158e-01
-4.301351308822631836e-01 4.274800717830657959e-01 3.496004641056060791e-01
1.650153249502182007e-01 3.313869982957839966e-02 4.060871303081512451e-01
-7.040789127349853516e-01 -2.233721762895584106e-01 3.838353753089904785e-01
-4.622748792171478271e-01 -4.507269561290740967e-01 2.270390689373016357e-01
5.481035113334655762e-01 4.452898204326629639e-01 8.899018168449401855e-02
9.829883277416229248e-02 -3.788541853427886963e-01 4.288948178291320801e-01
4.048203583806753159e-03 5.680143237113952637e-01 -5.584042668342590332e-01
-9.674726426601409912e-02 -9.591441601514816284e-02 -4.083879888057708740e-01
-2.519751787185668945e-01 -4.484679102897644043e-01 2.198112756013870239e-01
3.140959739685058594e-01 4.142757356166839600e-01 2.374079823493957520e-01
6.854313015937805176e-01 -3.129959106445312500e-01 3.893453478813171387e-01
-4.292619600892066956e-02 9.986674040555953979e-02 5.262605547904968262e-01
-6.904671788215637207e-01 -3.432184755802154541e-01 3.474915325641632080e-01
3.795753121376037598e-01 -1.766199320554733276e-01 3.006060719490051270e-01
4.627515971660614014e-01 5.923436880111694336e-01 1.717883497476577759e-01
-1.034364253282546997e-01 -1.161271482706069946e-01 4.848197400569915771e-01
-1.683777868747711182e-01 1.135622411966323853e-01 -4.179112315177917480e-01
-4.303362667560577393e-01 -3.651160001754760742e-01 2.865963578224182129e-01
-3.203980326652526855e-01 3.902183175086975098e-01 4.502705037593841553e-01
-4.541515111923217773e-01 -3.657783195376396179e-02 2.312057316303253174e-01
1.481172740459442139e-01 4.142757356166839600e-01 2.010225355625152588e-01
4.546109437942504883e-01 2.522663176059722900e-01 9.518561512231826782e-02
-3.366703391075134277e-01 -3.398692309856414795e-01 -3.005552589893341064e-01
-2.136983871459960938e-01 1.255963444709777832e-01 3.966717720031738281e-01
-3.230130299925804138e-02 4.766452908515930176e-01 5.552833080291748047e-01
-7.895896583795547485e-02 -4.293058812618255615e-01 1.593609899282455444e-01
4.438827037811279297e-01 2.507677376270294189e-01 3.138674199581146240e-01
-5.808079615235328674e-02 -4.423774778842926025e-01 2.863446176052093506e-01
-3.950060009956359863e-01 1.473849415779113770e-01 -3.608491420745849609e-01
-2.322319298982620239e-01 -5.156309008598327637e-01 6.347504258155822754e-02
-5.454768538475036621e-01 5.767951607704162598e-01 1.178241968154907227e-01
3.601554036140441895e-02 5.389141440391540527e-01 4.760996401309967041e-01
-7.800375670194625854e-02 -1.504326704889535904e-02 4.245609939098358154e-01
2.323656231164932251e-01 -3.526521623134613037e-01 2.808872759342193604e-01
4.352904856204986572e-01 4.523994028568267822e-01 1.912837922573089600e-01
-3.512636721134185791e-01 8.411053568124771118e-02 -3.940660655498504639e-01
3.247804343700408936e-01 4.322777688503265381e-01 -4.508932232856750488e-01
5.567429661750793457e-01 5.057326555252075195e-01 -2.378077618777751923e-02
-3.983641862869262695e-01 -1.946205496788024902e-01 3.866182267665863037e-02
-3.816889822483062744e-01 -2.468278706073760986e-01 -2.766269445419311523e-01
4.504160284996032715e-01 4.548865556716918945e-01 -3.264352977275848389e-01
-8.491674810647964478e-02 1.262045204639434814e-01 -5.257672667503356934e-01
1.687252148985862732e-02 1.662866920232772827e-01 -4.565976262092590332e-01
5.451130867004394531e-01 3.904339671134948730e-01 -9.634071588516235352e-02
3.381680697202682495e-02 3.864787518978118896e-01 -5.536711215972900391e-01
-2.200413346290588379e-01 5.995212793350219727e-01 4.530352354049682617e-01
-3.138329982757568359e-01 1.682037860155105591e-01 4.339523613452911377e-01
2.146091610193252563e-01 2.410685718059539795e-01 4.979461729526519775e-01
2.821397483348846436e-01 5.876602530479431152e-01 4.679366946220397949e-01
-4.846032857894897461e-01 -1.516758054494857788e-01 6.915516406297683716e-02
4.008268415927886963e-01 2.659775614738464355e-01 3.689862191677093506e-01
-4.561174213886260986e-01 -2.919120788574218750e-01 6.560791283845901489e-02
-2.251572608947753906e-01 1.524070799350738525e-01 -4.860144257545471191e-01
3.632457181811332703e-02 -4.215534627437591553e-01 4.983903840184211731e-02
-3.778570890426635742e-01 1.758326217532157898e-02 2.184887230396270752e-01
-3.873688578605651855e-01 -6.522211432456970215e-02 1.717244535684585571e-01
1.307223737239837646e-01 5.995212793350219727e-01 -5.051673650741577148e-01
4.214379489421844482e-01 5.800081491470336914e-01 2.283395677804946899e-01
-4.681360125541687012e-01 -2.551525831222534180e-01 -3.789214417338371277e-02
1.809049248695373535e-01 4.142757356166839600e-01 -1.829956620931625366e-01
-4.146265387535095215e-01 9.105552732944488525e-02 3.248253166675567627e-01
-5.477346777915954590e-01 5.449988245964050293e-01 -1.103462427854537964e-01
-3.399534896016120911e-02 3.901246786117553711e-01 -4.737290740013122559e-01
4.665157198905944824e-01 3.017792701721191406e-01 -4.187712445855140686e-02
-2.705087363719940186e-01 -5.334631204605102539e-01 2.467351704835891724e-01
-6.652885079383850098e-01 -1.222086772322654724e-01 3.271534144878387451e-01
-1.427796632051467896e-01 4.502424299716949463e-01 -4.551307260990142822e-01
-4.202773571014404297e-01 7.078325748443603516e-02 1.455256491899490356e-01
-3.013101220130920410e-01 -5.253083109855651855e-01 -9.077755361795425415e-02
-4.556370675563812256e-01 -2.742320895195007324e-01 3.034992516040802002e-01
-1.393007952719926834e-02 1.983052678406238556e-02 -4.381234049797058105e-01
-1.290351450443267822e-01 -2.931077480316162109e-01 4.413473308086395264e-01
3.340269625186920166e-01 -4.391877949237823486e-01 2.624885141849517822e-01
2.348006516695022583e-01 4.142757356166839600e-01 5.166225880384445190e-02
1.681144386529922485e-01 -2.878932654857635498e-02 4.819735288619995117e-01
-2.335736453533172607e-01 2.826195359230041504e-01 4.028487503528594971e-01
-1.988670676946640015e-01 -4.336248338222503662e-01 9.761682897806167603e-02
-8.504999428987503052e-02 -4.225689172744750977e-01 1.085079181939363480e-02
-8.665648289024829865e-03 5.995212793350219727e-01 5.149669051170349121e-01
5.329513456672430038e-03 -3.030507862567901611e-01 4.574767947196960449e-01
-5.674511790275573730e-01 -2.954000830650329590e-01 3.782171308994293213e-01
5.810374021530151367e-01 -3.616758063435554504e-02 3.192946016788482666e-01
4.571263492107391357e-02 4.142757356166839600e-01 -1.228946074843406677e-01
-4.743640124797821045e-01 4.120992720127105713e-01 -1.868250034749507904e-02
-5.256044119596481323e-02 -5.013682246208190918e-01 -6.398139521479606628e-03
3.686117827892303467e-01 1.504881493747234344e-02 3.616274297237396240e-01
6.048734784126281738e-01 -4.683047831058502197e-01 4.033078551292419434e-01
-2.345966845750808716e-01 4.216186106204986572e-01 4.117789566516876221e-01
4.830112755298614502e-01 -8.876471221446990967e-02 3.218704760074615479e-01
5.021755695343017578e-01 4.086634144186973572e-02 1.362369209527969360e-01
-4.083537161350250244e-01 2.888043820858001709e-01 -2.275379598140716553e-01
7.698719203472137451e-02 -8.390090614557266235e-02 4.948379993438720703e-01
2.477009296417236328e-01 -2.460904419422149658e-01 3.996419310569763184e-01
1.096480712294578552e-01 4.142757356166839600e-01 -3.820156455039978027e-01
7.581392675638198853e-02 2.958861589431762695e-01 4.606062769889831543e-01
